666, 667, 667, 669, 670, 670, 672, 673, 673, 674, 675, 675, 677, 678, 678, 678, 678, 680, 682, 682, 687, 692, 692, 698, 705, 705, 712, 719, 725, 725, 733, 738, 738, 741, 743, 743, 744, 744, 744, 744, 744, 744, 744, 744, 744, 744, 744, 744, 744, 744, 744, 743, 743, 743, 743, 0, 0, 742, 742, 742, 0, 0, 0, 0, 0, 0, 0, 0, 0, 0, 0, 0, 0, 0, 0, 0, 0, 0, 0, 539, 539, 539, 539, 539, 539, 539, 539, 539, 539, 539, 539, 539, 539, 539, 539, 540, 540, 540, 540, 540, 540, 540, 540, 540, 540, 540, 540, 540, 540, 540, 540, 540, 540, 540, 539, 539, 539, 539, 539, 539, 539, 539, 539, 539, 539, 539, 539, 539, 538, 538, 538, 538, 538, 538, 538, 538, 538, 538, 537, 537, 537, 537, 537, 537, 537, 538, 538, 538, 538, 538, 538, 538, 538, 538, 538, 538, 538, 538, 539, 539, 539, 539, 539, 540, 540, 540, 540, 540, 540, 540, 540, 540, 540, 540, 540, 540, 540, 541, 541, 541, 541, 541, 540, 540, 540, 540, 541, 540, 540, 540, 540, 540, 540, 540, 540, 540, 540, 540, 540, 540, 540, 540, 540, 540, 540, 540, 540, 540, 540, 540, 540, 540, 540, 540, 540, 541, 541, 541, 541, 541, 541, 542, 542, 542, 542, 542, 542, 542, 543, 543, 543, 543, 543, 543, 543, 543, 543, 543, 543, 542, 542, 542, 542, 542, 542, 543, 543, 543, 543, 543, 543, 543, 543, 544, 544, 544, 544, 544, 545, 545, 545, 545, 545, 544, 544, 544, 544, 544, 544, 544, 544, 544, 544, 543, 543, 543, 543, 543, 543, 542, 542, 542, 542, 542, 541, 541, 541, 541, 542, 542, 542, 542, 542, 542, 542, 542, 543, 543, 543, 543, 543, 544, 544, 544, 544, 544, 544, 545, 545, 545, 545, 545, 545, 545, 545, 545, 545, 545, 545, 545, 545, 545, 545, 545, 545, 545, 545, 545, 545, 545, 545, 545, 546, 546, 546, 546, 546, 546, 546, 546, 546, 546, 546, 546, 546, 546, 546, 546, 546, 546, 547, 547, 547, 547, 547, 547, 547, 547, 547, 547, 547, 547, 547, 548, 548, 548, 548, 548, 548, 549, 549, 549, 550, 550, 550, 550, 550, 550, 551, 551, 551, 550, 550, 550, 550, 550, 550, 550, 550, 550, 550, 550, 550, 550, 550, 550, 550, 550, 550, 550, 550, 550, 550, 550, 551, 551, 551, 552, 552, 552, 553, 553, 553, 554, 554, 554, 554, 554, 554, 554, 554, 554, 553, 553, 553, 553, 553, 553, 553, 553, 552, 552, 552, 552, 552, 552, 552, 552, 552, 552, 552, 552, 552, 552, 552, 552, 552, 552, 552, 552, 552, 552, 552, 552, 552, 551, 551, 551, 551, 551, 551, 551, 551, 552, 552, 552, 552, 552, 552, 552, 552, 552, 552, 552, 553, 553, 552, 552, 552, 552, 552, 552, 552, 553, 553, 553, 553, 553, 553, 553, 553, 553, 553, 553, 554, 554, 554, 554, 554, 554, 554, 554, 554, 554, 554, 554, 554, 554, 554, 554, 554, 553, 553, 553, 553, 553, 553, 553, 553, 552, 552, 552, 552, 552, 552, 552, 552, 552, 552, 552, 552, 552, 552, 552, 552, 552, 552, 552, 552, 552, 553, 553, 553, 553, 553, 553, 553, 553, 554, 554, 554, 554, 554, 555, 555, 555, 555, 555, 556, 556, 556, 556, 556, 556, 556, 556, 556, 556, 556, 556, 556, 556, 556, 556, 556, 556, 556, 556, 556, 557, 557, 557, 557, 557, 557, 557, 557, 557, 767, 767, 767, 767, 767, 767, 766, 766, 766, 766, 766, 766, 766, 766, 765, 765, 766
666, 667, 669, 669, 670, 670, 672, 673, 673, 675, 676, 676, 677, 678, 678, 678, 678, 680, 682, 682, 686, 691, 691, 697, 704, 704, 711, 718, 724, 724, 732, 737, 737, 741, 742, 742, 744, 744, 744, 744, 744, 744, 744, 744, 744, 744, 744, 744, 744, 744, 744, 743, 743, 743, 743, 743, 743, 742, 742, 742, 0, 0, 0, 0, 0, 0, 0, 0, 0, 0, 0, 0, 0, 0, 0, 0, 0, 0, 0, 539, 539, 539, 538, 538, 538, 539, 539, 539, 539, 539, 539, 539, 539, 539, 539, 540, 540, 540, 540, 540, 540, 540, 540, 540, 540, 540, 540, 540, 540, 540, 540, 540, 540, 540, 539, 539, 539, 539, 539, 539, 539, 539, 539, 539, 539, 539, 539, 539, 538, 538, 538, 538, 538, 538, 538, 538, 538, 538, 538, 538, 537, 537, 537, 537, 538, 538, 538, 538, 538, 538, 538, 538, 538, 538, 538, 538, 538, 538, 539, 539, 539, 539, 539, 540, 540, 540, 540, 540, 540, 540, 540, 540, 540, 540, 541, 541, 541, 541, 541, 541, 541, 541, 541, 541, 541, 541, 541, 541, 541, 541, 541, 541, 541, 540, 540, 540, 540, 540, 540, 540, 540, 540, 540, 540, 540, 540, 540, 540, 540, 540, 540, 540, 540, 540, 540, 541, 541, 541, 541, 541, 541, 542, 542, 542, 542, 542, 543, 543, 543, 543, 543, 543, 543, 543, 543, 543, 543, 543, 543, 543, 543, 542, 542, 542, 543, 543, 543, 543, 543, 543, 543, 543, 543, 544, 544, 544, 544, 544, 545, 545, 545, 545, 545, 545, 545, 544, 544, 544, 544, 544, 544, 544, 544, 543, 543, 543, 543, 543, 543, 542, 542, 542, 542, 542, 542, 541, 541, 541, 542, 542, 542, 542, 542, 542, 542, 542, 543, 543, 543, 543, 543, 544, 544, 544, 544, 544, 544, 545, 545, 545, 545, 545, 545, 545, 545, 545, 545, 545, 545, 545, 545, 545, 545, 545, 545, 545, 545, 545, 545, 545, 545, 545, 545, 545, 545, 545, 545, 546, 546, 546, 546, 546, 546, 546, 546, 546, 546, 546, 546, 546, 547, 547, 547, 547, 547, 547, 547, 547, 547, 547, 547, 547, 547, 547, 548, 548, 548, 548, 548, 548, 549, 549, 549, 549, 550, 550, 550, 550, 550, 550, 550, 550, 550, 550, 550, 550, 550, 550, 550, 550, 550, 550, 550, 550, 550, 550, 550, 550, 550, 550, 550, 550, 550, 550, 551, 551, 551, 552, 552, 552, 553, 553, 553, 553, 553, 553, 553, 553, 553, 553, 553, 553, 553, 553, 553, 553, 553, 553, 553, 553, 552, 552, 552, 552, 552, 552, 552, 552, 552, 552, 552, 552, 552, 552, 552, 552, 552, 552, 552, 552, 552, 552, 552, 552, 552, 551, 551, 551, 551, 551, 551, 551, 551, 552, 552, 552, 552, 552, 552, 552, 552, 552, 552, 552, 553, 553, 552, 552, 552, 552, 552, 552, 553, 553, 553, 553, 553, 553, 553, 553, 553, 553, 553, 553, 553, 553, 554, 554, 554, 554, 554, 554, 554, 554, 554, 554, 554, 554, 554, 554, 554, 554, 554, 554, 553, 553, 553, 553, 553, 553, 552, 552, 552, 552, 552, 551, 551, 551, 551, 551, 551, 551, 551, 551, 552, 552, 552, 552, 552, 552, 553, 553, 553, 553, 553, 553, 553, 553, 554, 554, 554, 554, 554, 554, 554, 555, 555, 555, 555, 555, 555, 556, 556, 556, 556, 556, 556, 556, 556, 556, 556, 556, 556, 556, 556, 556, 556, 556, 556, 557, 557, 557, 557, 557, 557, 557, 557, 557, 767, 767, 767, 767, 766, 766, 766, 766, 766, 766, 766, 766, 766, 766, 765, 765, 766
666, 667, 669, 669, 670, 670, 672, 673, 673, 675, 676, 676, 677, 678, 678, 679, 679, 680, 682, 682, 686, 691, 691, 697, 704, 704, 711, 718, 724, 724, 732, 737, 737, 741, 742, 742, 744, 744, 744, 744, 744, 744, 744, 744, 744, 744, 744, 744, 744, 744, 744, 743, 743, 743, 743, 743, 743, 742, 742, 742, 0, 0, 0, 0, 0, 0, 0, 0, 0, 0, 0, 0, 0, 0, 0, 0, 0, 0, 0, 0, 0, 0, 538, 538, 538, 539, 539, 539, 539, 539, 539, 539, 539, 539, 539, 540, 540, 540, 540, 540, 540, 540, 540, 540, 540, 540, 540, 540, 540, 540, 540, 540, 540, 539, 539, 539, 539, 539, 539, 539, 539, 539, 539, 539, 539, 538, 538, 538, 538, 538, 538, 538, 538, 538, 538, 538, 538, 538, 538, 538, 537, 537, 537, 537, 538, 538, 538, 538, 537, 537, 538, 537, 537, 538, 538, 538, 538, 538, 538, 538, 538, 539, 539, 539, 540, 540, 540, 540, 540, 540, 540, 540, 540, 540, 541, 541, 541, 541, 541, 541, 541, 541, 541, 541, 541, 541, 541, 541, 541, 541, 541, 541, 541, 540, 540, 540, 540, 540, 540, 540, 540, 540, 540, 540, 540, 540, 540, 540, 540, 540, 540, 540, 540, 540, 540, 541, 541, 541, 541, 541, 541, 542, 542, 542, 542, 542, 542, 542, 543, 543, 543, 543, 543, 543, 543, 543, 543, 543, 543, 543, 543, 542, 542, 542, 543, 543, 543, 543, 543, 543, 543, 543, 543, 544, 544, 544, 544, 544, 544, 545, 545, 545, 545, 544, 544, 544, 544, 544, 544, 544, 544, 544, 544, 543, 543, 543, 543, 543, 543, 542, 542, 542, 542, 542, 542, 541, 541, 541, 542, 542, 542, 542, 542, 542, 543, 543, 543, 543, 543, 544, 544, 544, 544, 544, 545, 545, 545, 545, 545, 545, 545, 545, 546, 546, 546, 546, 546, 545, 545, 545, 545, 545, 545, 545, 545, 545, 545, 545, 545, 545, 545, 545, 545, 545, 545, 545, 545, 545, 545, 546, 546, 546, 546, 546, 546, 546, 546, 546, 546, 546, 547, 547, 547, 547, 547, 547, 547, 547, 547, 547, 547, 547, 547, 547, 548, 548, 548, 548, 548, 548, 548, 548, 549, 549, 549, 550, 550, 550, 550, 550, 550, 550, 550, 550, 550, 550, 550, 550, 550, 550, 550, 550, 550, 550, 550, 550, 550, 550, 550, 550, 550, 550, 551, 551, 551, 551, 551, 552, 552, 552, 552, 552, 552, 553, 553, 553, 553, 553, 553, 553, 553, 553, 553, 553, 553, 553, 553, 553, 553, 553, 552, 552, 552, 552, 552, 552, 552, 552, 552, 552, 552, 552, 553, 553, 553, 553, 553, 553, 553, 552, 552, 552, 552, 552, 552, 552, 552, 552, 552, 552, 552, 552, 552, 552, 552, 552, 552, 552, 552, 553, 553, 553, 553, 553, 553, 553, 553, 553, 553, 553, 553, 553, 553, 553, 553, 553, 553, 553, 553, 553, 553, 553, 553, 553, 553, 553, 554, 554, 554, 554, 554, 554, 554, 554, 554, 554, 554, 554, 554, 554, 554, 554, 554, 554, 553, 553, 553, 553, 553, 553, 553, 553, 552, 552, 552, 551, 551, 551, 551, 551, 551, 551, 551, 551, 552, 552, 552, 552, 552, 552, 553, 553, 553, 553, 553, 553, 553, 553, 554, 554, 554, 554, 554, 554, 554, 555, 555, 555, 555, 555, 555, 556, 556, 556, 556, 556, 556, 556, 556, 556, 556, 556, 556, 556, 556, 556, 556, 556, 556, 557, 557, 557, 557, 557, 557, 557, 557, 557, 767, 767, 767, 767, 766, 766, 766, 766, 766, 766, 766, 766, 766, 766, 765, 765, 766
666, 667, 669, 669, 670, 670, 672, 673, 673, 675, 676, 676, 677, 678, 678, 679, 679, 680, 682, 682, 686, 691, 691, 697, 704, 704, 711, 718, 724, 724, 731, 736, 736, 740, 742, 742, 743, 743, 744, 744, 744, 744, 744, 744, 744, 744, 744, 744, 744, 743, 743, 743, 743, 743, 742, 742, 742, 742, 742, 742, 743, 0, 0, 0, 0, 0, 0, 0, 0, 0, 0, 0, 0, 0, 0, 0, 0, 0, 0, 0, 0, 538, 538, 538, 538, 538, 538, 539, 539, 539, 539, 539, 539, 539, 539, 540, 540, 540, 540, 540, 540, 540, 540, 540, 540, 540, 540, 540, 540, 539, 539, 539, 539, 539, 539, 539, 539, 539, 539, 539, 539, 538, 538, 538, 538, 538, 538, 538, 538, 538, 538, 538, 538, 538, 538, 538, 538, 538, 538, 538, 538, 538, 538, 538, 538, 538, 538, 537, 537, 537, 537, 537, 537, 537, 537, 537, 538, 538, 538, 538, 538, 539, 539, 539, 540, 540, 540, 540, 540, 540, 540, 540, 541, 541, 541, 541, 541, 541, 541, 541, 541, 541, 541, 541, 541, 541, 541, 541, 541, 541, 541, 541, 541, 541, 541, 540, 540, 540, 540, 540, 540, 540, 540, 540, 540, 540, 540, 540, 540, 540, 540, 540, 541, 541, 541, 541, 541, 541, 541, 541, 541, 542, 542, 542, 542, 542, 542, 542, 543, 543, 543, 543, 543, 543, 543, 543, 543, 543, 543, 543, 543, 543, 543, 543, 543, 543, 543, 543, 543, 543, 543, 544, 544, 544, 544, 544, 544, 544, 544, 545, 545, 545, 545, 544, 544, 544, 544, 544, 544, 544, 544, 544, 544, 543, 543, 543, 543, 543, 543, 542, 542, 542, 542, 542, 542, 542, 542, 542, 542, 542, 542, 542, 542, 543, 543, 543, 543, 543, 543, 544, 544, 545, 545, 545, 545, 545, 545, 545, 545, 545, 545, 545, 546, 546, 546, 546, 546, 545, 545, 545, 545, 545, 545, 545, 545, 545, 545, 545, 545, 545, 545, 545, 545, 545, 545, 545, 545, 545, 545, 546, 546, 546, 546, 546, 546, 546, 546, 546, 546, 546, 547, 547, 547, 547, 547, 547, 547, 547, 547, 547, 547, 547, 547, 547, 548, 548, 548, 548, 548, 548, 548, 548, 549, 549, 549, 550, 550, 550, 550, 550, 550, 550, 550, 550, 550, 550, 550, 550, 550, 550, 550, 550, 550, 550, 550, 550, 550, 550, 550, 550, 550, 550, 551, 551, 551, 551, 551, 552, 552, 552, 552, 552, 552, 553, 553, 553, 553, 553, 553, 553, 553, 553, 553, 553, 553, 552, 552, 552, 552, 552, 552, 552, 552, 552, 552, 552, 552, 552, 552, 552, 552, 552, 553, 553, 553, 553, 553, 553, 553, 552, 552, 552, 552, 552, 552, 552, 552, 552, 552, 552, 552, 552, 552, 552, 552, 552, 552, 552, 552, 553, 553, 553, 553, 553, 553, 553, 553, 553, 553, 553, 553, 553, 553, 553, 553, 553, 553, 553, 553, 553, 553, 553, 553, 553, 553, 553, 553, 554, 554, 554, 554, 554, 554, 554, 554, 554, 554, 554, 554, 554, 554, 554, 554, 554, 553, 553, 553, 553, 553, 553, 552, 552, 552, 552, 552, 551, 551, 551, 551, 551, 551, 551, 551, 551, 551, 551, 552, 552, 552, 552, 553, 553, 553, 553, 553, 553, 553, 553, 554, 554, 554, 554, 554, 554, 554, 554, 555, 555, 555, 555, 555, 555, 555, 556, 556, 556, 556, 556, 556, 556, 556, 556, 556, 556, 556, 556, 556, 556, 556, 557, 557, 557, 557, 557, 556, 556, 557, 557, 767, 767, 767, 767, 766, 766, 766, 766, 766, 766, 766, 766, 765, 765, 765, 765, 765
666, 667, 669, 669, 670, 670, 672, 673, 673, 675, 676, 676, 677, 678, 678, 679, 679, 680, 682, 682, 686, 691, 691, 697, 704, 704, 711, 718, 724, 724, 731, 736, 736, 740, 742, 742, 743, 743, 744, 744, 744, 744, 744, 744, 744, 744, 744, 744, 744, 743, 743, 743, 743, 743, 742, 742, 742, 742, 742, 742, 743, 0, 0, 0, 0, 0, 0, 0, 0, 0, 0, 0, 0, 0, 0, 0, 0, 0, 0, 0, 0, 538, 538, 538, 538, 538, 538, 539, 539, 539, 539, 539, 539, 540, 540, 540, 540, 540, 540, 540, 540, 540, 540, 540, 540, 540, 540, 540, 540, 539, 539, 539, 539, 539, 539, 539, 539, 539, 539, 539, 539, 538, 538, 538, 538, 538, 538, 538, 538, 538, 538, 538, 538, 538, 538, 538, 538, 538, 538, 538, 538, 538, 538, 538, 538, 538, 538, 537, 537, 537, 537, 537, 537, 537, 537, 537, 538, 538, 538, 538, 538, 539, 539, 539, 540, 540, 540, 540, 540, 540, 540, 540, 541, 541, 541, 541, 541, 541, 541, 541, 541, 541, 541, 541, 541, 541, 542, 542, 542, 542, 541, 541, 541, 541, 541, 541, 541, 541, 541, 541, 541, 540, 540, 540, 540, 540, 540, 540, 540, 540, 540, 540, 541, 541, 541, 541, 541, 541, 541, 541, 542, 542, 542, 542, 542, 542, 542, 542, 543, 543, 543, 543, 543, 543, 543, 543, 543, 543, 543, 543, 543, 543, 543, 543, 543, 543, 543, 543, 543, 543, 543, 544, 544, 544, 544, 544, 544, 544, 544, 544, 544, 545, 544, 544, 544, 544, 544, 544, 544, 544, 544, 543, 543, 543, 543, 543, 543, 543, 543, 542, 542, 542, 542, 542, 542, 542, 542, 542, 542, 542, 542, 542, 542, 543, 543, 543, 543, 543, 543, 544, 544, 545, 545, 545, 545, 545, 545, 545, 545, 545, 545, 545, 546, 546, 546, 546, 546, 545, 545, 545, 545, 545, 545, 545, 545, 545, 545, 545, 545, 545, 545, 545, 545, 545, 545, 545, 545, 545, 545, 546, 546, 546, 546, 546, 546, 546, 546, 546, 546, 546, 547, 547, 547, 547, 547, 547, 547, 547, 547, 547, 547, 547, 547, 547, 547, 547, 547, 548, 548, 548, 548, 548, 549, 549, 549, 549, 549, 549, 550, 550, 550, 550, 550, 550, 550, 550, 550, 550, 550, 550, 550, 550, 550, 550, 550, 550, 550, 550, 550, 550, 550, 550, 551, 551, 551, 551, 551, 551, 552, 552, 552, 552, 552, 552, 552, 552, 552, 552, 552, 552, 552, 552, 552, 552, 552, 552, 552, 552, 552, 552, 552, 552, 552, 552, 552, 552, 552, 552, 552, 552, 553, 553, 553, 553, 553, 553, 553, 553, 553, 552, 552, 552, 552, 552, 552, 552, 552, 552, 552, 552, 552, 552, 552, 552, 552, 552, 553, 553, 553, 553, 553, 553, 553, 553, 553, 553, 553, 553, 553, 553, 553, 553, 553, 553, 553, 553, 553, 553, 553, 553, 553, 553, 553, 553, 553, 553, 553, 554, 554, 554, 554, 554, 554, 554, 554, 554, 554, 554, 554, 554, 554, 554, 554, 554, 554, 554, 554, 553, 553, 553, 552, 552, 552, 552, 552, 551, 551, 551, 551, 551, 551, 551, 551, 551, 551, 551, 552, 552, 552, 552, 553, 553, 553, 553, 553, 553, 553, 553, 554, 554, 554, 554, 554, 554, 554, 554, 555, 555, 555, 555, 555, 555, 555, 556, 556, 556, 556, 556, 556, 556, 556, 556, 556, 556, 556, 556, 556, 556, 556, 557, 557, 557, 557, 557, 556, 556, 557, 557, 767, 767, 767, 767, 766, 766, 766, 766, 766, 766, 766, 766, 765, 765, 765, 765, 765
666, 667, 669, 669, 670, 670, 672, 673, 673, 675, 676, 676, 677, 678, 678, 679, 680, 680, 682, 682, 686, 691, 691, 697, 705, 705, 711, 718, 724, 724, 731, 736, 736, 740, 742, 742, 743, 743, 744, 744, 744, 744, 744, 744, 744, 744, 744, 744, 744, 743, 743, 743, 743, 743, 742, 742, 742, 742, 742, 742, 743, 0, 0, 0, 0, 0, 0, 0, 0, 0, 0, 0, 0, 0, 0, 0, 0, 0, 0, 538, 538, 538, 538, 538, 538, 538, 538, 538, 539, 539, 539, 539, 539, 540, 540, 540, 540, 540, 540, 540, 540, 540, 540, 540, 540, 540, 540, 540, 539, 539, 539, 539, 539, 539, 538, 538, 538, 538, 538, 538, 538, 538, 538, 538, 538, 538, 538, 538, 538, 538, 538, 538, 538, 538, 538, 538, 538, 538, 538, 538, 538, 538, 538, 538, 538, 538, 538, 537, 537, 537, 537, 537, 537, 537, 537, 537, 537, 537, 538, 538, 538, 538, 538, 539, 539, 539, 540, 540, 540, 540, 540, 540, 540, 540, 540, 541, 541, 541, 541, 541, 541, 541, 541, 541, 541, 541, 542, 542, 542, 542, 541, 541, 541, 541, 541, 541, 541, 541, 541, 541, 541, 540, 540, 540, 540, 540, 540, 540, 540, 540, 540, 540, 541, 541, 541, 541, 541, 541, 541, 541, 542, 542, 542, 542, 542, 542, 542, 542, 543, 543, 543, 543, 543, 543, 543, 543, 543, 543, 543, 543, 543, 542, 542, 542, 542, 543, 543, 543, 543, 543, 543, 543, 543, 544, 544, 544, 544, 544, 544, 544, 544, 544, 544, 544, 544, 544, 544, 544, 544, 544, 544, 543, 543, 543, 543, 543, 543, 543, 543, 542, 542, 542, 542, 542, 542, 542, 542, 542, 542, 542, 542, 543, 543, 543, 543, 543, 543, 543, 544, 544, 544, 545, 545, 545, 545, 545, 545, 545, 545, 545, 545, 545, 546, 546, 546, 546, 546, 545, 545, 545, 545, 545, 545, 545, 545, 545, 545, 545, 545, 545, 545, 545, 545, 545, 545, 545, 545, 545, 545, 546, 546, 546, 546, 546, 546, 546, 546, 546, 546, 546, 547, 547, 547, 547, 547, 547, 547, 547, 547, 547, 547, 547, 547, 547, 547, 547, 547, 548, 548, 548, 548, 548, 549, 549, 549, 549, 549, 549, 550, 550, 550, 550, 550, 550, 550, 550, 550, 550, 550, 550, 550, 550, 550, 550, 550, 550, 550, 550, 550, 550, 550, 550, 551, 551, 551, 551, 551, 551, 552, 552, 552, 552, 552, 552, 552, 552, 552, 552, 552, 552, 552, 552, 552, 552, 552, 552, 552, 552, 552, 552, 552, 552, 552, 552, 552, 553, 553, 553, 553, 553, 553, 553, 553, 553, 553, 553, 553, 553, 553, 552, 552, 552, 552, 552, 552, 552, 552, 552, 552, 552, 552, 552, 552, 552, 552, 552, 553, 553, 553, 553, 553, 553, 553, 553, 553, 554, 554, 554, 554, 553, 553, 553, 553, 553, 553, 553, 553, 553, 553, 553, 553, 553, 553, 553, 553, 553, 554, 554, 554, 554, 554, 554, 554, 554, 554, 554, 554, 554, 554, 554, 554, 554, 554, 554, 554, 554, 554, 553, 553, 553, 552, 552, 552, 552, 552, 551, 551, 551, 551, 551, 551, 551, 551, 551, 552, 552, 552, 552, 552, 553, 553, 553, 553, 553, 553, 553, 553, 553, 554, 554, 554, 554, 554, 554, 554, 554, 554, 554, 555, 555, 555, 555, 555, 555, 555, 555, 555, 555, 555, 556, 556, 556, 556, 556, 556, 556, 556, 556, 556, 556, 556, 556, 557, 557, 556, 556, 557, 557, 766, 766, 766, 766, 766, 766, 765, 765, 766, 766, 766, 765, 765, 765, 765, 765, 765
666, 667, 668, 668, 670, 670, 672, 673, 673, 675, 676, 676, 677, 678, 678, 679, 680, 680, 682, 682, 686, 691, 691, 697, 705, 705, 711, 718, 724, 724, 731, 736, 736, 740, 741, 741, 742, 742, 743, 744, 744, 744, 744, 744, 744, 744, 744, 744, 743, 743, 743, 743, 743, 743, 742, 742, 742, 743, 743, 743, 0, 0, 0, 0, 0, 0, 0, 0, 0, 0, 0, 0, 0, 0, 0, 0, 0, 0, 0, 538, 538, 538, 538, 538, 538, 538, 538, 538, 539, 539, 539, 540, 540, 540, 540, 540, 540, 540, 540, 540, 540, 540, 540, 540, 540, 540, 539, 539, 539, 539, 539, 539, 539, 538, 538, 538, 538, 538, 538, 538, 538, 538, 538, 538, 538, 538, 538, 538, 538, 538, 538, 538, 538, 538, 538, 538, 538, 538, 538, 539, 538, 538, 538, 538, 538, 538, 538, 538, 538, 538, 538, 537, 537, 537, 537, 537, 537, 537, 537, 537, 538, 538, 538, 538, 539, 539, 539, 539, 539, 540, 540, 540, 540, 540, 540, 541, 541, 541, 541, 541, 541, 541, 541, 542, 542, 542, 542, 542, 542, 542, 542, 542, 542, 542, 542, 541, 541, 541, 541, 541, 541, 541, 541, 541, 541, 541, 540, 540, 540, 541, 541, 541, 541, 541, 541, 541, 541, 541, 541, 541, 542, 542, 542, 542, 543, 543, 543, 543, 543, 543, 543, 543, 543, 543, 543, 543, 543, 543, 543, 543, 543, 542, 542, 542, 542, 543, 543, 543, 543, 543, 543, 543, 543, 544, 544, 544, 544, 544, 544, 544, 544, 544, 544, 544, 544, 544, 544, 544, 544, 544, 544, 543, 543, 543, 543, 543, 543, 543, 543, 542, 542, 542, 542, 542, 542, 542, 542, 542, 543, 543, 543, 543, 543, 543, 544, 544, 544, 544, 544, 545, 545, 545, 545, 545, 545, 546, 546, 546, 546, 546, 546, 546, 546, 546, 546, 546, 546, 546, 546, 546, 546, 546, 546, 545, 545, 545, 545, 545, 545, 545, 545, 545, 545, 545, 545, 545, 545, 546, 546, 546, 546, 546, 546, 547, 547, 547, 546, 546, 547, 547, 547, 547, 547, 547, 547, 547, 547, 547, 547, 547, 547, 547, 547, 547, 547, 547, 547, 548, 548, 548, 548, 548, 548, 548, 549, 549, 549, 549, 549, 549, 549, 549, 549, 549, 549, 549, 549, 549, 550, 550, 550, 550, 550, 550, 550, 550, 550, 550, 550, 550, 550, 550, 551, 551, 551, 551, 551, 551, 552, 552, 552, 552, 552, 552, 552, 552, 552, 552, 552, 552, 552, 552, 552, 552, 552, 552, 552, 552, 552, 552, 552, 552, 552, 552, 552, 553, 553, 553, 553, 553, 553, 553, 553, 553, 553, 553, 553, 553, 553, 552, 552, 552, 552, 552, 552, 552, 552, 551, 551, 552, 552, 552, 552, 552, 552, 552, 553, 553, 553, 553, 553, 553, 553, 553, 553, 554, 554, 554, 554, 553, 553, 553, 553, 553, 553, 553, 553, 553, 553, 553, 553, 553, 553, 553, 553, 553, 554, 554, 554, 554, 554, 554, 554, 554, 554, 554, 554, 554, 554, 554, 554, 554, 554, 554, 554, 554, 554, 553, 553, 553, 552, 552, 552, 552, 552, 551, 551, 551, 551, 551, 551, 551, 551, 551, 552, 552, 552, 552, 552, 553, 553, 553, 553, 553, 553, 553, 553, 553, 553, 553, 554, 554, 554, 554, 554, 554, 554, 554, 555, 555, 555, 555, 555, 555, 555, 555, 555, 555, 555, 555, 555, 555, 556, 556, 556, 556, 556, 557, 557, 556, 556, 556, 557, 557, 556, 556, 557, 557, 766, 766, 766, 766, 766, 766, 765, 765, 765, 765, 765, 764, 764, 764, 764, 764, 764
666, 667, 668, 668, 670, 670, 672, 673, 673, 675, 676, 676, 677, 678, 678, 679, 680, 680, 682, 682, 687, 692, 692, 698, 705, 705, 711, 718, 725, 725, 731, 736, 736, 740, 741, 741, 742, 742, 743, 744, 744, 744, 744, 744, 744, 744, 744, 744, 743, 743, 743, 743, 743, 743, 742, 742, 742, 743, 743, 743, 0, 0, 0, 0, 0, 0, 0, 0, 0, 0, 0, 0, 0, 0, 0, 0, 0, 0, 0, 538, 538, 538, 538, 538, 538, 538, 538, 538, 539, 539, 539, 540, 540, 540, 540, 540, 540, 540, 540, 540, 540, 540, 540, 540, 540, 540, 539, 539, 539, 539, 539, 539, 539, 538, 538, 538, 538, 538, 538, 538, 538, 538, 538, 538, 538, 538, 538, 538, 538, 538, 538, 538, 538, 538, 538, 538, 538, 539, 539, 539, 539, 539, 539, 538, 538, 538, 538, 538, 538, 538, 538, 537, 537, 537, 537, 537, 537, 537, 537, 537, 538, 538, 538, 538, 539, 539, 539, 539, 539, 540, 540, 540, 540, 540, 540, 541, 541, 541, 541, 541, 541, 541, 541, 542, 542, 542, 542, 542, 542, 542, 542, 542, 542, 542, 542, 541, 541, 541, 541, 541, 541, 541, 541, 541, 541, 541, 540, 540, 540, 541, 541, 541, 541, 541, 541, 541, 541, 541, 541, 541, 542, 542, 542, 542, 542, 542, 543, 543, 543, 543, 543, 543, 543, 543, 543, 543, 543, 543, 543, 543, 543, 542, 542, 542, 542, 543, 543, 543, 543, 543, 543, 543, 543, 544, 544, 544, 544, 544, 544, 544, 544, 544, 544, 544, 544, 544, 543, 543, 543, 543, 543, 543, 543, 543, 543, 543, 543, 543, 543, 542, 542, 542, 542, 542, 542, 542, 542, 542, 543, 543, 543, 543, 543, 543, 544, 544, 544, 544, 544, 545, 545, 545, 545, 545, 545, 546, 546, 546, 546, 546, 546, 546, 546, 546, 546, 546, 546, 546, 546, 546, 546, 546, 546, 545, 545, 545, 545, 545, 545, 545, 545, 545, 545, 545, 545, 545, 545, 546, 546, 546, 546, 546, 546, 547, 547, 547, 546, 546, 547, 547, 547, 547, 547, 547, 547, 547, 547, 547, 547, 547, 547, 547, 547, 547, 547, 547, 547, 548, 548, 548, 548, 548, 548, 548, 549, 549, 549, 549, 549, 549, 549, 549, 549, 549, 549, 549, 549, 549, 550, 550, 549, 549, 549, 549, 550, 550, 550, 550, 550, 550, 550, 550, 551, 551, 551, 551, 551, 551, 551, 551, 551, 551, 551, 551, 551, 551, 551, 551, 551, 551, 551, 551, 551, 552, 552, 552, 552, 552, 552, 552, 552, 552, 552, 552, 552, 553, 553, 553, 553, 553, 553, 553, 553, 553, 553, 553, 553, 553, 553, 552, 552, 552, 552, 552, 552, 551, 551, 551, 551, 551, 551, 551, 551, 552, 552, 552, 552, 553, 553, 553, 553, 553, 553, 553, 554, 554, 554, 554, 554, 554, 554, 554, 554, 554, 554, 554, 554, 553, 553, 553, 553, 553, 553, 553, 553, 553, 554, 554, 554, 554, 554, 554, 554, 554, 554, 554, 554, 554, 554, 554, 554, 554, 554, 554, 554, 554, 554, 553, 553, 553, 553, 553, 552, 552, 552, 551, 551, 551, 551, 551, 551, 551, 551, 552, 552, 552, 552, 552, 552, 553, 553, 553, 553, 553, 553, 553, 553, 553, 553, 553, 554, 554, 554, 554, 554, 554, 554, 554, 555, 555, 555, 555, 555, 555, 555, 555, 555, 555, 555, 555, 555, 555, 556, 556, 556, 556, 556, 557, 557, 556, 556, 556, 557, 557, 556, 556, 557, 557, 766, 766, 766, 766, 766, 766, 765, 765, 765, 765, 765, 764, 764, 764, 764, 764, 764
665, 667, 668, 668, 670, 670, 671, 673, 673, 674, 675, 675, 676, 678, 678, 678, 678, 680, 682, 682, 687, 692, 692, 698, 705, 705, 711, 718, 725, 725, 731, 736, 736, 739, 741, 741, 742, 742, 743, 743, 743, 744, 744, 744, 744, 744, 744, 744, 743, 743, 743, 743, 743, 743, 742, 742, 742, 743, 743, 743, 0, 0, 0, 0, 0, 0, 0, 0, 0, 0, 0, 0, 0, 0, 0, 0, 0, 0, 538, 538, 538, 538, 538, 538, 538, 538, 538, 538, 539, 539, 539, 540, 540, 540, 540, 540, 540, 540, 540, 540, 540, 540, 540, 540, 540, 539, 539, 539, 539, 539, 539, 539, 539, 538, 538, 538, 538, 538, 538, 538, 538, 538, 538, 538, 538, 538, 538, 538, 538, 538, 538, 538, 538, 538, 538, 538, 538, 539, 539, 539, 539, 539, 539, 538, 538, 538, 538, 538, 538, 538, 538, 537, 537, 537, 537, 537, 537, 537, 537, 537, 537, 538, 538, 538, 538, 538, 539, 539, 539, 540, 540, 540, 540, 540, 540, 541, 541, 541, 541, 541, 541, 541, 542, 542, 542, 542, 542, 542, 542, 542, 542, 542, 542, 542, 542, 542, 542, 542, 542, 542, 541, 541, 541, 541, 541, 541, 541, 541, 541, 541, 541, 541, 541, 541, 541, 541, 541, 542, 542, 542, 542, 542, 542, 542, 542, 542, 543, 543, 543, 543, 543, 543, 543, 543, 543, 543, 543, 543, 543, 543, 543, 543, 543, 543, 543, 543, 543, 543, 543, 543, 543, 543, 543, 544, 544, 544, 544, 544, 544, 544, 544, 544, 544, 543, 543, 543, 543, 543, 543, 543, 543, 543, 543, 543, 543, 543, 543, 543, 543, 543, 543, 543, 543, 543, 543, 543, 543, 543, 543, 543, 543, 543, 543, 544, 544, 544, 544, 545, 545, 545, 545, 545, 545, 545, 546, 546, 546, 546, 546, 546, 546, 546, 546, 547, 547, 546, 546, 546, 546, 546, 546, 546, 546, 546, 546, 545, 545, 545, 545, 545, 545, 545, 545, 545, 545, 545, 546, 546, 546, 546, 546, 546, 547, 547, 547, 547, 547, 547, 547, 547, 547, 547, 547, 547, 547, 547, 547, 547, 547, 547, 547, 547, 547, 547, 547, 547, 548, 548, 548, 548, 548, 548, 548, 548, 549, 549, 549, 549, 549, 549, 549, 549, 549, 549, 549, 549, 549, 549, 550, 550, 549, 549, 549, 549, 550, 550, 550, 550, 550, 550, 550, 550, 551, 551, 551, 551, 551, 551, 551, 551, 551, 551, 551, 551, 551, 551, 551, 551, 551, 551, 551, 551, 551, 552, 552, 552, 552, 552, 552, 552, 552, 552, 552, 552, 552, 553, 553, 553, 553, 553, 553, 553, 553, 553, 553, 553, 553, 553, 553, 552, 552, 552, 552, 552, 552, 551, 551, 551, 551, 551, 551, 551, 551, 552, 552, 552, 552, 553, 553, 553, 553, 553, 553, 553, 554, 554, 554, 554, 554, 554, 554, 554, 554, 554, 554, 554, 554, 554, 554, 553, 553, 553, 553, 553, 553, 553, 554, 554, 554, 554, 554, 554, 554, 554, 554, 554, 554, 554, 554, 554, 554, 554, 554, 554, 554, 554, 554, 553, 553, 553, 553, 553, 552, 552, 552, 551, 551, 551, 551, 551, 551, 551, 551, 552, 552, 552, 552, 552, 552, 553, 553, 553, 553, 553, 553, 553, 553, 553, 553, 553, 554, 554, 554, 554, 554, 554, 554, 554, 554, 554, 554, 555, 554, 554, 555, 555, 555, 555, 555, 555, 555, 555, 556, 556, 556, 556, 556, 557, 557, 556, 556, 556, 557, 557, 556, 556, 557, 557, 766, 766, 766, 766, 765, 765, 765, 764, 764, 764, 764, 764, 763, 763, 763, 763, 763
665, 667, 668, 668, 669, 669, 671, 672, 672, 674, 675, 675, 676, 677, 677, 678, 678, 680, 683, 683, 687, 692, 692, 698, 705, 711, 711, 719, 725, 725, 731, 736, 736, 738, 740, 740, 741, 741, 742, 743, 743, 743, 744, 744, 744, 744, 744, 744, 743, 743, 743, 743, 743, 743, 742, 742, 742, 743, 743, 743, 0, 0, 0, 0, 0, 0, 0, 0, 0, 0, 0, 0, 0, 0, 0, 0, 0, 0, 538, 538, 538, 538, 538, 538, 538, 538, 538, 538, 539, 539, 539, 540, 540, 540, 540, 540, 540, 540, 540, 540, 540, 540, 540, 540, 540, 539, 539, 539, 539, 539, 539, 538, 538, 538, 538, 538, 538, 538, 538, 538, 538, 538, 538, 538, 538, 538, 538, 538, 538, 538, 538, 538, 538, 538, 539, 539, 539, 539, 539, 539, 539, 539, 539, 538, 538, 538, 538, 538, 538, 538, 538, 538, 537, 537, 537, 537, 537, 537, 537, 537, 537, 538, 538, 538, 538, 538, 539, 539, 539, 540, 540, 540, 540, 540, 540, 541, 541, 541, 541, 541, 542, 542, 542, 542, 542, 542, 543, 543, 543, 543, 543, 543, 542, 542, 543, 542, 542, 542, 542, 542, 542, 541, 541, 541, 541, 541, 541, 541, 541, 541, 541, 541, 541, 541, 541, 541, 541, 542, 542, 542, 542, 542, 542, 542, 542, 542, 543, 543, 543, 543, 543, 543, 543, 543, 543, 543, 543, 543, 543, 543, 543, 543, 543, 543, 543, 543, 543, 543, 543, 543, 543, 543, 543, 544, 544, 544, 544, 544, 544, 544, 544, 544, 544, 543, 543, 543, 543, 543, 543, 543, 543, 543, 543, 543, 543, 543, 543, 543, 543, 543, 543, 543, 543, 543, 543, 543, 543, 543, 544, 544, 544, 544, 544, 544, 544, 544, 544, 545, 545, 545, 545, 545, 545, 545, 546, 546, 546, 546, 546, 546, 546, 546, 546, 547, 547, 546, 546, 546, 546, 546, 546, 546, 546, 546, 546, 545, 545, 545, 545, 545, 545, 545, 545, 545, 545, 545, 546, 546, 546, 546, 546, 546, 547, 547, 547, 547, 547, 547, 547, 547, 547, 547, 547, 547, 547, 547, 547, 547, 547, 547, 547, 547, 547, 547, 547, 547, 548, 548, 548, 548, 548, 548, 548, 548, 549, 549, 549, 549, 549, 549, 549, 549, 549, 549, 549, 549, 549, 549, 549, 549, 549, 549, 549, 549, 549, 549, 549, 550, 550, 550, 550, 550, 550, 550, 551, 551, 551, 551, 551, 551, 551, 551, 551, 551, 551, 551, 551, 551, 551, 551, 551, 551, 551, 551, 552, 552, 552, 552, 552, 552, 552, 552, 552, 552, 552, 553, 553, 553, 553, 553, 553, 553, 553, 553, 553, 553, 553, 553, 553, 552, 552, 552, 552, 552, 551, 551, 551, 551, 551, 551, 551, 551, 551, 551, 552, 552, 552, 552, 552, 553, 553, 553, 553, 553, 553, 554, 554, 554, 554, 554, 554, 554, 554, 554, 554, 554, 554, 554, 554, 553, 553, 553, 553, 553, 553, 553, 553, 554, 554, 554, 554, 554, 554, 554, 554, 554, 554, 554, 554, 554, 554, 554, 554, 554, 554, 554, 554, 553, 553, 553, 553, 553, 552, 552, 552, 552, 552, 552, 552, 552, 552, 552, 552, 552, 552, 552, 552, 552, 552, 553, 553, 553, 553, 553, 553, 554, 554, 554, 554, 554, 554, 554, 554, 554, 554, 554, 554, 554, 554, 554, 554, 554, 554, 554, 554, 554, 555, 555, 555, 555, 555, 555, 556, 556, 556, 556, 556, 557, 557, 556, 556, 556, 557, 557, 557, 557, 557, 557, 766, 765, 765, 765, 764, 764, 764, 764, 764, 764, 764, 763, 763, 763, 762, 762, 762
665, 667, 668, 668, 669, 669, 671, 672, 672, 674, 675, 675, 676, 677, 677, 678, 680, 680, 683, 683, 687, 693, 693, 698, 705, 712, 712, 719, 725, 725, 731, 736, 736, 738, 740, 740, 741, 741, 742, 743, 743, 743, 744, 744, 744, 744, 744, 744, 743, 743, 743, 743, 743, 743, 743, 743, 743, 743, 743, 743, 0, 0, 0, 0, 0, 0, 0, 0, 0, 0, 0, 0, 0, 0, 0, 0, 0, 0, 0, 539, 539, 539, 539, 539, 539, 539, 539, 539, 539, 539, 539, 540, 540, 540, 540, 540, 540, 540, 540, 540, 540, 540, 540, 540, 540, 539, 539, 539, 539, 539, 539, 538, 538, 538, 538, 538, 538, 538, 538, 538, 538, 538, 538, 538, 538, 538, 538, 538, 538, 538, 538, 538, 538, 538, 539, 539, 539, 539, 539, 539, 539, 539, 539, 538, 538, 538, 538, 538, 538, 538, 538, 538, 537, 537, 537, 537, 537, 537, 537, 537, 537, 538, 538, 538, 538, 538, 539, 539, 539, 539, 539, 540, 540, 540, 540, 540, 540, 541, 541, 541, 541, 541, 542, 542, 542, 542, 543, 543, 543, 543, 543, 543, 542, 542, 543, 542, 542, 542, 542, 542, 542, 541, 541, 541, 541, 541, 541, 541, 541, 541, 541, 541, 541, 541, 541, 541, 541, 542, 542, 542, 542, 542, 542, 542, 542, 542, 543, 543, 543, 543, 543, 543, 543, 543, 543, 543, 543, 543, 543, 543, 543, 543, 543, 543, 543, 543, 543, 543, 543, 543, 543, 543, 543, 543, 543, 543, 543, 543, 543, 543, 543, 543, 543, 543, 543, 543, 543, 543, 543, 543, 543, 543, 543, 543, 543, 543, 543, 543, 543, 543, 543, 543, 543, 543, 543, 543, 543, 543, 544, 544, 544, 544, 544, 544, 544, 544, 544, 545, 545, 545, 545, 545, 545, 545, 546, 546, 546, 546, 546, 546, 547, 547, 547, 547, 547, 547, 547, 547, 547, 547, 547, 547, 547, 546, 546, 546, 546, 546, 546, 546, 546, 546, 546, 546, 546, 546, 546, 546, 546, 547, 547, 547, 547, 547, 547, 547, 547, 548, 548, 547, 547, 548, 548, 548, 548, 547, 547, 547, 547, 547, 547, 547, 547, 548, 548, 548, 548, 548, 548, 548, 548, 548, 548, 548, 549, 549, 549, 549, 549, 549, 549, 549, 549, 549, 549, 549, 549, 549, 549, 549, 549, 549, 549, 549, 549, 549, 549, 549, 549, 550, 550, 550, 550, 550, 550, 550, 550, 550, 551, 551, 551, 551, 550, 550, 550, 551, 551, 551, 551, 551, 551, 551, 551, 551, 552, 552, 552, 552, 552, 552, 552, 552, 552, 552, 552, 553, 553, 553, 553, 553, 553, 553, 553, 553, 553, 553, 553, 553, 553, 552, 552, 552, 552, 552, 551, 551, 551, 551, 551, 551, 551, 551, 551, 551, 552, 552, 552, 552, 552, 553, 553, 553, 553, 553, 553, 554, 554, 554, 554, 554, 554, 554, 554, 554, 554, 554, 554, 554, 554, 554, 553, 553, 553, 553, 553, 553, 553, 554, 554, 554, 554, 554, 554, 554, 554, 554, 554, 554, 554, 554, 555, 554, 554, 554, 554, 554, 554, 553, 553, 553, 553, 553, 552, 552, 552, 552, 552, 552, 552, 552, 552, 552, 552, 552, 552, 552, 553, 553, 553, 553, 554, 554, 554, 554, 554, 554, 554, 554, 554, 554, 554, 554, 554, 554, 554, 554, 554, 554, 554, 554, 554, 554, 554, 554, 554, 554, 555, 555, 555, 555, 555, 555, 556, 556, 556, 557, 557, 557, 557, 557, 557, 557, 557, 557, 557, 557, 557, 557, 766, 765, 765, 765, 764, 764, 764, 764, 764, 764, 764, 763, 763, 763, 762, 762, 762
665, 667, 667, 667, 669, 669, 671, 672, 672, 673, 675, 675, 676, 677, 677, 678, 680, 680, 683, 683, 687, 693, 693, 698, 705, 712, 712, 719, 725, 725, 731, 736, 736, 738, 739, 739, 741, 741, 741, 742, 742, 743, 743, 743, 744, 744, 744, 744, 743, 743, 743, 743, 743, 743, 743, 743, 743, 743, 743, 743, 0, 0, 0, 0, 0, 0, 0, 0, 0, 0, 0, 0, 0, 0, 0, 0, 0, 0, 539, 539, 539, 539, 539, 539, 539, 539, 539, 539, 539, 539, 539, 540, 540, 540, 540, 540, 540, 540, 540, 540, 540, 540, 540, 539, 539, 539, 539, 539, 539, 539, 539, 538, 538, 538, 538, 538, 538, 538, 538, 538, 538, 538, 538, 538, 538, 538, 539, 539, 539, 539, 539, 539, 539, 539, 539, 539, 539, 539, 539, 539, 539, 539, 539, 538, 538, 538, 538, 538, 538, 538, 538, 538, 538, 538, 537, 537, 537, 537, 537, 537, 538, 538, 538, 538, 538, 538, 538, 539, 539, 539, 539, 540, 540, 540, 540, 540, 540, 541, 541, 541, 541, 541, 542, 542, 542, 542, 543, 543, 543, 543, 543, 543, 543, 543, 543, 543, 542, 542, 542, 542, 542, 541, 541, 541, 541, 541, 541, 541, 541, 541, 541, 541, 541, 541, 541, 541, 541, 542, 542, 542, 542, 542, 542, 542, 542, 542, 543, 543, 543, 543, 543, 543, 543, 543, 543, 543, 543, 543, 543, 543, 543, 543, 543, 543, 543, 543, 543, 542, 542, 542, 543, 543, 543, 543, 543, 543, 543, 543, 543, 543, 543, 543, 543, 543, 543, 543, 543, 543, 543, 543, 543, 543, 543, 543, 543, 543, 543, 543, 543, 543, 543, 543, 543, 543, 543, 544, 544, 544, 544, 544, 544, 544, 544, 544, 545, 545, 545, 545, 545, 545, 545, 546, 546, 546, 546, 546, 546, 547, 547, 547, 547, 547, 547, 547, 547, 547, 548, 548, 548, 548, 547, 547, 547, 547, 547, 547, 547, 546, 546, 546, 546, 546, 546, 546, 547, 547, 547, 547, 547, 547, 548, 548, 548, 548, 548, 548, 548, 548, 548, 548, 548, 548, 548, 548, 548, 548, 548, 548, 548, 548, 548, 548, 548, 548, 548, 548, 548, 548, 548, 548, 548, 548, 549, 549, 549, 549, 549, 549, 549, 549, 549, 549, 549, 549, 549, 549, 549, 549, 549, 549, 549, 549, 549, 549, 549, 549, 549, 549, 549, 550, 550, 550, 550, 550, 550, 550, 550, 550, 551, 551, 551, 551, 550, 550, 550, 551, 551, 551, 551, 551, 551, 551, 551, 552, 552, 552, 552, 552, 552, 552, 552, 552, 552, 552, 553, 553, 553, 553, 553, 553, 553, 553, 553, 553, 553, 553, 553, 553, 553, 552, 552, 552, 551, 551, 551, 551, 551, 551, 551, 551, 551, 551, 551, 551, 551, 551, 552, 552, 552, 552, 553, 553, 553, 553, 553, 554, 554, 554, 554, 554, 554, 554, 554, 554, 554, 554, 554, 554, 554, 554, 553, 553, 553, 553, 553, 553, 553, 553, 553, 553, 553, 554, 554, 554, 554, 554, 554, 554, 554, 554, 555, 554, 554, 554, 554, 554, 554, 553, 553, 553, 553, 553, 552, 552, 552, 552, 552, 552, 552, 552, 552, 552, 552, 552, 552, 552, 553, 553, 553, 553, 554, 554, 554, 554, 554, 554, 554, 554, 554, 554, 554, 554, 554, 554, 554, 554, 554, 554, 554, 554, 554, 554, 554, 554, 554, 554, 555, 555, 555, 555, 555, 555, 556, 556, 556, 556, 556, 557, 557, 557, 557, 557, 557, 557, 557, 557, 557, 557, 766, 765, 765, 765, 764, 764, 764, 764, 764, 763, 763, 762, 762, 762, 762, 762, 762
665, 667, 667, 667, 669, 669, 671, 672, 672, 673, 675, 675, 676, 677, 677, 678, 680, 680, 683, 683, 687, 693, 693, 699, 705, 712, 712, 719, 725, 725, 731, 735, 735, 737, 739, 739, 740, 740, 740, 742, 742, 742, 743, 743, 743, 744, 744, 744, 743, 743, 743, 743, 743, 743, 743, 743, 743, 744, 0, 0, 0, 0, 0, 0, 0, 0, 0, 0, 0, 0, 0, 0, 0, 0, 0, 0, 0, 0, 539, 539, 539, 539, 539, 539, 539, 539, 539, 539, 539, 539, 539, 540, 540, 540, 540, 540, 540, 540, 540, 540, 540, 540, 540, 539, 539, 539, 539, 539, 539, 539, 539, 539, 539, 538, 538, 538, 538, 539, 539, 539, 539, 539, 539, 539, 539, 539, 539, 539, 539, 539, 539, 539, 539, 539, 539, 539, 539, 540, 540, 540, 540, 539, 539, 539, 539, 539, 539, 538, 538, 538, 538, 538, 538, 538, 538, 538, 538, 538, 538, 538, 538, 538, 538, 538, 538, 538, 538, 539, 539, 539, 539, 540, 540, 540, 540, 540, 540, 541, 541, 541, 541, 541, 542, 542, 542, 542, 543, 543, 543, 543, 543, 543, 543, 543, 543, 543, 542, 542, 542, 542, 542, 541, 541, 541, 541, 541, 541, 541, 541, 541, 541, 541, 541, 541, 541, 541, 541, 542, 542, 542, 542, 542, 542, 542, 542, 542, 543, 543, 543, 543, 543, 543, 543, 543, 543, 543, 543, 543, 543, 543, 543, 543, 543, 543, 543, 543, 543, 542, 542, 542, 543, 543, 543, 543, 543, 543, 543, 543, 543, 543, 543, 543, 543, 543, 543, 543, 543, 543, 543, 543, 543, 543, 543, 543, 543, 543, 543, 543, 543, 543, 543, 543, 543, 543, 543, 544, 544, 544, 544, 544, 544, 544, 544, 544, 545, 545, 545, 545, 545, 545, 545, 546, 546, 546, 546, 546, 546, 547, 547, 547, 547, 547, 547, 547, 547, 547, 548, 548, 548, 548, 547, 547, 547, 547, 547, 547, 547, 546, 546, 546, 546, 546, 546, 546, 547, 547, 547, 547, 547, 547, 548, 548, 548, 548, 548, 548, 548, 548, 548, 548, 548, 548, 548, 548, 548, 548, 548, 548, 548, 548, 548, 548, 548, 548, 548, 548, 548, 548, 548, 548, 548, 548, 549, 549, 549, 549, 549, 549, 549, 549, 549, 549, 549, 549, 549, 549, 549, 549, 549, 549, 549, 549, 549, 549, 549, 549, 549, 549, 549, 549, 549, 549, 550, 550, 550, 550, 550, 550, 550, 550, 550, 550, 550, 550, 550, 550, 550, 550, 551, 551, 551, 551, 551, 551, 552, 552, 552, 552, 552, 552, 552, 552, 552, 552, 553, 553, 553, 553, 553, 553, 553, 553, 553, 553, 553, 553, 553, 553, 553, 552, 552, 552, 551, 551, 551, 551, 551, 551, 551, 551, 551, 551, 551, 551, 551, 551, 551, 552, 552, 552, 552, 552, 553, 553, 553, 553, 553, 554, 554, 554, 554, 554, 554, 554, 554, 554, 554, 554, 553, 553, 553, 553, 553, 553, 553, 553, 553, 553, 553, 553, 553, 553, 554, 554, 554, 554, 554, 554, 554, 554, 554, 554, 554, 554, 554, 554, 554, 554, 554, 553, 553, 553, 553, 553, 552, 552, 552, 552, 552, 553, 553, 553, 553, 553, 553, 553, 553, 554, 554, 554, 554, 554, 554, 554, 554, 554, 554, 554, 554, 554, 554, 554, 554, 554, 554, 554, 554, 554, 554, 554, 554, 554, 554, 554, 555, 555, 555, 555, 555, 555, 555, 555, 556, 556, 556, 556, 556, 557, 557, 557, 557, 557, 558, 558, 557, 557, 558, 558, 766, 765, 765, 765, 764, 764, 764, 764, 764, 763, 763, 762, 762, 762, 762, 762, 762
665, 667, 667, 667, 669, 669, 671, 672, 672, 673, 675, 675, 676, 677, 677, 678, 680, 680, 683, 683, 687, 694, 694, 699, 706, 713, 713, 719, 725, 725, 731, 735, 735, 737, 739, 739, 740, 740, 740, 742, 742, 742, 743, 743, 743, 744, 744, 744, 743, 743, 743, 743, 743, 743, 743, 743, 743, 744, 0, 0, 0, 0, 0, 0, 0, 0, 0, 0, 0, 0, 0, 0, 0, 0, 0, 0, 0, 0, 539, 539, 539, 539, 538, 538, 538, 538, 538, 538, 539, 539, 539, 540, 540, 540, 540, 540, 540, 540, 540, 540, 540, 540, 540, 539, 539, 539, 539, 539, 539, 539, 539, 539, 539, 538, 538, 538, 538, 539, 539, 539, 539, 539, 539, 539, 539, 539, 539, 539, 539, 539, 539, 539, 539, 539, 539, 539, 539, 540, 540, 540, 540, 539, 539, 539, 539, 539, 539, 538, 538, 538, 538, 538, 538, 538, 538, 538, 538, 538, 538, 538, 538, 538, 538, 538, 538, 538, 538, 539, 539, 539, 539, 540, 540, 540, 540, 540, 540, 540, 540, 541, 541, 541, 542, 542, 542, 542, 543, 543, 543, 543, 543, 543, 543, 543, 543, 543, 542, 542, 542, 542, 542, 541, 541, 541, 541, 541, 541, 541, 541, 541, 541, 541, 541, 541, 541, 541, 541, 542, 542, 542, 542, 542, 542, 542, 542, 542, 542, 542, 543, 543, 543, 543, 543, 543, 543, 543, 543, 543, 543, 543, 543, 542, 542, 542, 542, 542, 542, 542, 542, 542, 542, 543, 543, 543, 543, 543, 543, 543, 543, 543, 543, 543, 543, 543, 543, 543, 543, 543, 543, 543, 543, 543, 543, 543, 543, 543, 543, 543, 544, 544, 544, 544, 544, 544, 544, 544, 544, 544, 545, 545, 545, 545, 545, 545, 545, 545, 545, 546, 546, 546, 546, 546, 546, 546, 546, 546, 546, 547, 547, 547, 547, 547, 548, 548, 548, 548, 548, 548, 548, 548, 548, 548, 548, 548, 548, 547, 547, 547, 547, 547, 547, 547, 547, 547, 547, 548, 548, 548, 548, 548, 548, 548, 548, 549, 549, 549, 549, 548, 548, 548, 548, 548, 548, 548, 548, 548, 548, 548, 548, 548, 548, 548, 548, 548, 548, 548, 548, 548, 548, 549, 549, 549, 549, 549, 549, 549, 549, 549, 549, 549, 549, 549, 549, 549, 549, 549, 549, 549, 549, 549, 549, 549, 549, 549, 549, 549, 549, 549, 549, 549, 549, 549, 550, 550, 550, 550, 550, 550, 550, 550, 550, 550, 550, 550, 550, 550, 550, 550, 551, 551, 551, 551, 551, 551, 552, 552, 552, 552, 552, 552, 552, 552, 553, 553, 553, 553, 553, 553, 553, 553, 554, 553, 553, 553, 553, 553, 553, 553, 553, 552, 552, 552, 551, 551, 551, 551, 551, 551, 551, 551, 551, 551, 551, 551, 551, 551, 551, 552, 552, 552, 552, 552, 553, 553, 553, 553, 553, 554, 554, 554, 554, 554, 554, 554, 554, 554, 554, 554, 553, 553, 553, 553, 553, 553, 553, 553, 553, 553, 553, 553, 553, 553, 554, 554, 554, 554, 554, 554, 554, 554, 554, 554, 554, 554, 554, 554, 554, 554, 554, 553, 553, 553, 553, 553, 553, 553, 553, 553, 553, 553, 553, 553, 553, 553, 554, 554, 554, 554, 554, 554, 555, 555, 555, 555, 555, 555, 555, 555, 555, 555, 555, 554, 554, 554, 554, 554, 554, 554, 554, 554, 554, 554, 554, 555, 555, 555, 555, 556, 555, 555, 555, 555, 556, 556, 556, 556, 556, 557, 557, 557, 557, 557, 558, 558, 557, 557, 558, 558, 766, 765, 765, 765, 764, 764, 764, 764, 764, 763, 763, 762, 762, 762, 762, 761, 761
665, 666, 667, 667, 669, 669, 670, 672, 672, 673, 674, 674, 675, 677, 677, 678, 680, 680, 683, 683, 687, 694, 694, 699, 706, 713, 713, 719, 725, 725, 731, 735, 735, 736, 738, 738, 739, 739, 740, 741, 741, 742, 743, 743, 743, 744, 744, 744, 743, 743, 743, 743, 743, 743, 743, 743, 743, 744, 0, 0, 0, 0, 0, 0, 0, 0, 0, 0, 0, 0, 0, 0, 0, 0, 540, 540, 539, 539, 539, 539, 539, 539, 538, 538, 538, 538, 538, 538, 539, 539, 539, 540, 540, 540, 540, 540, 540, 540, 540, 540, 540, 539, 539, 539, 539, 538, 538, 538, 538, 538, 538, 538, 538, 538, 539, 539, 539, 539, 539, 539, 539, 539, 539, 539, 539, 540, 540, 540, 540, 540, 540, 540, 540, 540, 540, 540, 540, 540, 540, 540, 540, 540, 540, 539, 539, 539, 539, 539, 539, 538, 538, 538, 538, 538, 538, 538, 538, 538, 538, 538, 538, 538, 538, 538, 538, 538, 539, 539, 539, 539, 539, 540, 540, 540, 540, 540, 540, 540, 540, 541, 541, 541, 542, 542, 542, 542, 542, 542, 543, 543, 543, 543, 543, 543, 543, 542, 542, 542, 542, 542, 542, 542, 542, 541, 541, 541, 541, 541, 541, 541, 541, 541, 541, 541, 541, 541, 541, 542, 542, 542, 542, 542, 542, 542, 542, 542, 542, 542, 543, 543, 543, 543, 543, 543, 543, 543, 543, 543, 543, 543, 543, 542, 542, 542, 542, 542, 542, 542, 542, 542, 542, 543, 543, 543, 543, 543, 543, 543, 543, 543, 543, 543, 543, 543, 543, 543, 543, 543, 543, 543, 543, 543, 543, 543, 543, 543, 543, 544, 544, 544, 544, 544, 544, 545, 545, 545, 545, 545, 545, 546, 545, 545, 545, 545, 545, 545, 546, 546, 546, 546, 546, 546, 546, 546, 546, 546, 546, 547, 547, 547, 548, 548, 548, 548, 548, 548, 548, 548, 549, 549, 548, 548, 548, 548, 548, 548, 548, 548, 548, 548, 548, 548, 548, 548, 548, 548, 548, 548, 548, 548, 548, 548, 549, 549, 549, 549, 549, 549, 549, 549, 549, 549, 548, 548, 548, 548, 548, 548, 548, 548, 548, 548, 548, 548, 548, 548, 548, 549, 549, 549, 549, 549, 549, 549, 549, 549, 549, 549, 549, 549, 549, 549, 549, 549, 549, 549, 549, 549, 549, 549, 549, 549, 549, 549, 549, 549, 549, 549, 549, 549, 549, 549, 550, 550, 550, 550, 550, 550, 550, 550, 550, 550, 550, 550, 550, 550, 550, 550, 550, 550, 551, 551, 551, 551, 552, 552, 552, 552, 552, 552, 552, 552, 553, 553, 553, 553, 553, 553, 553, 553, 553, 553, 553, 553, 553, 553, 553, 553, 553, 552, 552, 552, 551, 551, 551, 551, 551, 551, 551, 551, 551, 551, 551, 551, 551, 551, 551, 552, 552, 552, 552, 552, 552, 552, 553, 553, 553, 553, 554, 554, 554, 554, 554, 554, 554, 554, 554, 553, 553, 553, 553, 553, 553, 552, 552, 552, 552, 553, 553, 553, 553, 553, 553, 553, 553, 554, 554, 554, 554, 554, 554, 554, 554, 554, 554, 554, 554, 554, 554, 553, 553, 553, 553, 553, 553, 553, 553, 553, 553, 553, 553, 553, 553, 553, 554, 554, 554, 554, 554, 554, 555, 555, 555, 555, 555, 555, 555, 555, 555, 555, 555, 554, 554, 554, 554, 554, 554, 554, 554, 554, 554, 554, 554, 555, 555, 555, 555, 556, 556, 556, 556, 556, 556, 556, 557, 557, 557, 558, 558, 558, 558, 558, 558, 558, 558, 558, 558, 558, 766, 765, 765, 765, 764, 764, 764, 764, 764, 763, 763, 762, 762, 762, 762, 761, 761
665, 666, 667, 667, 669, 669, 670, 672, 672, 672, 674, 674, 675, 677, 677, 678, 680, 680, 683, 683, 688, 694, 694, 700, 706, 713, 713, 719, 725, 725, 731, 735, 735, 736, 738, 738, 739, 739, 740, 741, 741, 742, 743, 743, 743, 744, 744, 744, 743, 743, 743, 743, 743, 743, 743, 0, 0, 0, 0, 0, 0, 0, 0, 0, 0, 0, 0, 0, 0, 0, 0, 0, 0, 0, 540, 540, 539, 539, 539, 539, 539, 539, 539, 539, 539, 539, 539, 539, 539, 539, 539, 540, 540, 540, 540, 540, 540, 540, 540, 540, 540, 539, 539, 539, 539, 538, 538, 538, 538, 538, 538, 538, 538, 538, 539, 539, 539, 539, 539, 539, 540, 540, 540, 540, 540, 540, 540, 540, 540, 540, 540, 540, 540, 540, 540, 540, 540, 540, 540, 540, 540, 540, 540, 539, 539, 539, 539, 539, 539, 539, 539, 539, 538, 538, 538, 538, 538, 538, 538, 538, 538, 538, 538, 538, 538, 538, 539, 539, 539, 539, 539, 540, 540, 540, 540, 540, 540, 541, 541, 541, 541, 541, 542, 542, 542, 542, 542, 542, 543, 543, 543, 543, 543, 543, 543, 542, 542, 542, 542, 542, 542, 541, 541, 541, 541, 541, 541, 541, 541, 541, 541, 541, 541, 541, 541, 541, 541, 542, 542, 542, 542, 542, 542, 542, 542, 542, 542, 542, 543, 543, 543, 543, 543, 543, 543, 543, 543, 543, 543, 542, 542, 542, 542, 542, 542, 542, 542, 542, 542, 542, 542, 542, 542, 543, 543, 543, 543, 543, 543, 543, 543, 543, 543, 543, 543, 543, 543, 543, 543, 543, 543, 543, 543, 543, 543, 543, 543, 544, 544, 544, 544, 544, 544, 545, 545, 545, 545, 545, 545, 546, 545, 545, 545, 545, 545, 545, 546, 546, 546, 546, 546, 546, 546, 546, 546, 546, 546, 547, 547, 547, 548, 548, 548, 548, 548, 548, 548, 548, 549, 549, 548, 548, 548, 548, 548, 548, 548, 548, 548, 548, 548, 548, 548, 548, 548, 548, 548, 548, 548, 548, 548, 548, 549, 549, 549, 549, 549, 549, 549, 549, 549, 549, 548, 548, 548, 548, 548, 548, 548, 548, 548, 548, 548, 548, 548, 548, 548, 549, 549, 549, 549, 549, 549, 549, 549, 549, 549, 549, 549, 549, 549, 549, 549, 549, 549, 549, 549, 549, 549, 549, 549, 549, 549, 549, 549, 549, 549, 549, 549, 549, 549, 549, 549, 549, 549, 549, 549, 549, 549, 549, 549, 549, 549, 549, 549, 549, 549, 549, 550, 550, 550, 551, 551, 551, 552, 552, 552, 552, 552, 553, 553, 553, 553, 553, 553, 553, 553, 553, 553, 553, 553, 553, 553, 553, 553, 553, 553, 553, 553, 552, 552, 552, 552, 552, 551, 551, 551, 551, 551, 551, 551, 551, 551, 551, 551, 551, 551, 552, 552, 552, 552, 552, 552, 552, 552, 553, 553, 553, 553, 553, 553, 553, 553, 554, 553, 553, 553, 553, 553, 553, 552, 552, 552, 552, 552, 552, 552, 552, 552, 553, 553, 553, 553, 553, 553, 553, 553, 554, 554, 554, 554, 554, 554, 554, 554, 554, 554, 554, 554, 554, 553, 553, 553, 553, 553, 553, 553, 553, 553, 554, 554, 554, 554, 554, 554, 554, 554, 555, 555, 555, 556, 556, 556, 556, 556, 556, 556, 555, 555, 555, 555, 555, 555, 555, 555, 555, 555, 555, 555, 555, 555, 555, 555, 555, 555, 555, 556, 556, 556, 556, 556, 557, 557, 557, 558, 558, 558, 558, 559, 558, 558, 558, 559, 559, 559, 559, 559, 559, 766, 766, 766, 765, 765, 765, 764, 764, 764, 763, 763, 762, 762, 762, 762, 761, 761
665, 666, 667, 667, 669, 669, 670, 672, 672, 672, 674, 674, 675, 677, 677, 678, 680, 680, 683, 683, 688, 694, 694, 700, 706, 713, 713, 719, 725, 725, 731, 734, 734, 736, 737, 737, 738, 738, 739, 740, 740, 741, 742, 742, 743, 744, 744, 744, 743, 743, 743, 743, 743, 743, 743, 0, 0, 0, 0, 0, 0, 0, 0, 0, 0, 0, 0, 0, 0, 0, 0, 0, 0, 0, 540, 540, 539, 539, 539, 539, 539, 539, 539, 539, 539, 539, 539, 539, 539, 539, 539, 540, 540, 540, 540, 540, 540, 539, 539, 539, 539, 539, 539, 538, 538, 538, 538, 538, 538, 538, 538, 538, 538, 538, 539, 539, 539, 539, 539, 539, 540, 540, 540, 540, 540, 540, 540, 540, 540, 540, 540, 540, 540, 540, 540, 540, 540, 540, 540, 540, 540, 540, 540, 539, 539, 539, 539, 539, 539, 539, 539, 539, 538, 538, 538, 538, 538, 538, 538, 538, 538, 538, 538, 538, 538, 538, 539, 539, 539, 539, 539, 540, 540, 540, 540, 540, 540, 541, 541, 541, 541, 541, 541, 542, 542, 542, 542, 542, 543, 543, 543, 543, 543, 542, 542, 542, 542, 542, 542, 542, 542, 541, 541, 541, 541, 541, 541, 541, 541, 541, 541, 541, 541, 541, 541, 542, 542, 542, 542, 542, 542, 542, 542, 542, 542, 542, 542, 542, 543, 543, 543, 543, 543, 543, 543, 543, 543, 543, 543, 542, 542, 542, 542, 542, 542, 542, 542, 542, 542, 542, 542, 542, 542, 542, 542, 543, 543, 542, 542, 542, 542, 543, 543, 543, 543, 543, 543, 543, 543, 543, 543, 543, 543, 543, 543, 544, 544, 544, 544, 544, 545, 545, 545, 545, 545, 545, 546, 546, 546, 546, 546, 546, 546, 546, 546, 546, 546, 546, 546, 546, 546, 546, 546, 546, 547, 547, 547, 547, 547, 547, 548, 548, 548, 548, 548, 548, 548, 548, 549, 549, 548, 548, 548, 548, 548, 548, 548, 548, 548, 548, 548, 548, 548, 548, 548, 549, 549, 549, 549, 549, 549, 549, 549, 549, 549, 549, 549, 549, 549, 549, 549, 549, 549, 549, 549, 549, 549, 549, 548, 548, 548, 548, 549, 549, 549, 549, 549, 549, 549, 549, 550, 549, 549, 549, 549, 549, 549, 549, 549, 549, 549, 549, 549, 549, 549, 549, 549, 549, 549, 549, 549, 549, 549, 549, 549, 549, 549, 549, 549, 549, 549, 549, 549, 549, 549, 549, 549, 549, 549, 549, 549, 549, 549, 549, 549, 549, 549, 549, 550, 550, 550, 551, 551, 551, 552, 552, 552, 552, 552, 553, 553, 553, 553, 553, 553, 553, 553, 553, 553, 553, 554, 554, 553, 553, 553, 553, 553, 553, 553, 553, 552, 552, 552, 552, 551, 551, 551, 551, 551, 551, 551, 551, 551, 551, 551, 551, 551, 552, 552, 552, 552, 552, 552, 552, 552, 553, 553, 553, 553, 553, 553, 553, 553, 554, 553, 553, 553, 553, 553, 553, 552, 552, 552, 552, 552, 552, 552, 552, 552, 553, 553, 553, 553, 553, 553, 553, 553, 554, 554, 554, 554, 554, 554, 554, 554, 554, 554, 554, 554, 554, 553, 553, 553, 553, 553, 553, 553, 553, 553, 554, 554, 554, 554, 554, 554, 554, 554, 555, 555, 555, 556, 556, 556, 556, 556, 556, 556, 555, 555, 555, 555, 555, 555, 555, 555, 555, 555, 555, 555, 555, 555, 555, 555, 555, 555, 555, 556, 556, 556, 556, 556, 557, 557, 557, 558, 558, 558, 558, 559, 558, 558, 558, 559, 559, 559, 559, 559, 559, 766, 766, 766, 765, 765, 765, 764, 764, 764, 763, 763, 762, 762, 762, 762, 761, 761
664, 665, 667, 667, 668, 668, 670, 672, 672, 672, 674, 674, 675, 677, 677, 678, 680, 680, 684, 684, 689, 694, 700, 700, 706, 713, 713, 719, 725, 725, 730, 733, 733, 735, 736, 736, 737, 737, 739, 740, 740, 741, 741, 741, 742, 743, 743, 744, 743, 743, 743, 743, 744, 744, 744, 744, 0, 0, 0, 0, 0, 0, 0, 0, 0, 0, 0, 0, 0, 0, 0, 0, 0, 0, 540, 540, 540, 540, 540, 539, 539, 539, 539, 539, 539, 539, 539, 539, 539, 539, 539, 539, 539, 539, 539, 539, 539, 539, 539, 539, 538, 538, 538, 538, 538, 538, 538, 538, 538, 538, 538, 538, 538, 538, 539, 539, 539, 539, 540, 540, 540, 540, 540, 540, 540, 540, 540, 540, 540, 540, 540, 540, 540, 540, 540, 540, 540, 540, 540, 540, 540, 540, 540, 539, 539, 539, 539, 539, 539, 539, 539, 539, 539, 539, 539, 539, 539, 539, 539, 538, 538, 539, 539, 539, 539, 539, 539, 539, 539, 540, 540, 540, 540, 540, 540, 540, 540, 541, 541, 541, 541, 541, 541, 542, 542, 542, 542, 542, 543, 543, 543, 543, 543, 542, 542, 542, 542, 542, 542, 542, 542, 541, 541, 541, 541, 541, 541, 541, 541, 541, 541, 541, 541, 542, 542, 542, 542, 542, 542, 542, 542, 542, 542, 542, 542, 542, 542, 542, 543, 543, 543, 543, 543, 543, 543, 543, 543, 543, 543, 542, 542, 542, 542, 542, 542, 542, 542, 542, 542, 542, 542, 542, 542, 542, 542, 543, 543, 542, 542, 542, 542, 543, 543, 543, 543, 543, 543, 543, 543, 543, 543, 543, 543, 543, 543, 544, 544, 544, 545, 545, 545, 545, 545, 546, 546, 546, 546, 546, 546, 547, 546, 546, 546, 546, 547, 547, 547, 547, 547, 547, 547, 547, 547, 547, 547, 547, 547, 547, 548, 548, 548, 548, 548, 548, 548, 548, 548, 548, 549, 549, 549, 549, 549, 549, 549, 549, 549, 549, 548, 548, 548, 548, 548, 548, 548, 549, 549, 549, 549, 549, 549, 549, 549, 549, 549, 549, 549, 549, 549, 549, 549, 549, 549, 549, 549, 549, 549, 549, 548, 548, 548, 548, 549, 549, 549, 549, 549, 549, 549, 549, 549, 549, 549, 549, 549, 549, 549, 549, 549, 549, 549, 549, 549, 549, 549, 549, 549, 549, 549, 549, 549, 549, 549, 549, 549, 549, 549, 549, 549, 549, 549, 549, 549, 549, 549, 549, 549, 549, 549, 549, 549, 548, 548, 549, 549, 549, 549, 549, 549, 549, 550, 550, 550, 551, 551, 551, 552, 552, 552, 553, 553, 553, 553, 553, 553, 553, 553, 553, 553, 553, 553, 553, 553, 553, 553, 553, 553, 553, 553, 553, 552, 552, 552, 552, 551, 551, 551, 551, 551, 551, 551, 551, 551, 551, 551, 551, 551, 552, 552, 552, 552, 552, 552, 552, 552, 553, 553, 553, 553, 553, 553, 553, 553, 553, 553, 553, 553, 553, 553, 552, 552, 552, 552, 552, 552, 552, 552, 552, 552, 552, 552, 552, 552, 552, 553, 553, 553, 553, 553, 553, 554, 554, 554, 554, 554, 554, 554, 554, 554, 554, 554, 554, 554, 553, 553, 553, 554, 554, 554, 554, 554, 554, 555, 555, 555, 555, 555, 556, 556, 556, 556, 556, 556, 556, 556, 556, 556, 556, 556, 556, 556, 556, 556, 556, 555, 555, 555, 555, 555, 555, 555, 556, 556, 556, 556, 556, 556, 557, 557, 557, 557, 557, 558, 558, 558, 558, 558, 559, 560, 559, 559, 559, 560, 560, 560, 560, 560, 560, 767, 767, 767, 766, 765, 765, 765, 764, 764, 763, 763, 763, 762, 762, 762, 761, 761
664, 665, 667, 667, 668, 668, 670, 672, 672, 673, 675, 675, 676, 677, 677, 678, 680, 680, 684, 684, 689, 694, 700, 700, 706, 713, 713, 719, 725, 725, 730, 733, 733, 735, 736, 736, 737, 737, 739, 740, 740, 741, 741, 741, 742, 743, 743, 744, 743, 743, 743, 743, 744, 744, 744, 744, 0, 0, 0, 0, 0, 0, 0, 0, 0, 0, 0, 0, 0, 0, 0, 0, 0, 0, 0, 0, 540, 540, 540, 540, 540, 540, 539, 539, 539, 539, 539, 539, 539, 539, 539, 539, 539, 539, 539, 539, 539, 539, 539, 539, 538, 538, 538, 538, 538, 538, 538, 538, 538, 538, 538, 538, 538, 538, 539, 539, 539, 540, 540, 540, 540, 540, 540, 540, 540, 540, 540, 540, 540, 540, 540, 540, 540, 540, 540, 540, 540, 540, 540, 540, 540, 540, 540, 539, 539, 539, 539, 539, 539, 539, 539, 539, 539, 539, 539, 539, 539, 539, 539, 538, 538, 539, 539, 539, 539, 539, 539, 539, 539, 540, 540, 540, 540, 540, 540, 540, 540, 541, 541, 541, 541, 541, 541, 541, 541, 542, 542, 542, 542, 542, 542, 542, 542, 542, 542, 542, 542, 542, 542, 542, 541, 541, 541, 541, 541, 541, 541, 541, 541, 541, 541, 541, 541, 542, 542, 542, 542, 542, 542, 542, 542, 542, 542, 542, 542, 542, 542, 542, 542, 543, 543, 543, 543, 543, 543, 543, 543, 543, 543, 542, 542, 542, 542, 542, 542, 542, 542, 542, 542, 542, 542, 542, 542, 542, 542, 542, 542, 542, 542, 542, 542, 542, 542, 543, 543, 543, 543, 543, 543, 543, 543, 543, 543, 543, 543, 544, 544, 544, 545, 545, 545, 545, 545, 546, 546, 546, 546, 546, 546, 547, 546, 546, 546, 546, 547, 547, 547, 547, 547, 547, 547, 547, 547, 547, 547, 547, 547, 547, 548, 548, 548, 548, 548, 548, 548, 548, 548, 548, 549, 549, 549, 549, 549, 549, 549, 549, 549, 549, 549, 549, 549, 549, 549, 549, 549, 549, 549, 549, 549, 549, 549, 549, 550, 550, 550, 550, 549, 549, 549, 549, 549, 549, 549, 549, 549, 549, 549, 549, 549, 549, 549, 549, 549, 549, 549, 549, 549, 549, 549, 549, 549, 549, 549, 549, 550, 550, 549, 549, 550, 550, 549, 549, 549, 549, 549, 549, 549, 549, 549, 549, 549, 549, 549, 549, 549, 549, 549, 549, 549, 549, 549, 549, 549, 549, 548, 548, 548, 548, 548, 548, 548, 548, 548, 548, 548, 548, 549, 549, 549, 549, 550, 550, 550, 551, 551, 551, 552, 552, 552, 553, 553, 553, 553, 553, 553, 553, 553, 553, 553, 553, 553, 553, 553, 553, 553, 553, 553, 553, 553, 553, 553, 553, 552, 552, 552, 552, 552, 552, 551, 551, 551, 551, 551, 551, 551, 551, 552, 552, 552, 552, 552, 552, 552, 552, 552, 553, 553, 553, 553, 553, 553, 553, 553, 553, 553, 553, 553, 553, 553, 552, 552, 552, 552, 552, 552, 552, 552, 552, 552, 552, 552, 552, 552, 552, 553, 553, 553, 553, 553, 553, 554, 554, 554, 554, 554, 554, 554, 554, 554, 554, 554, 554, 554, 554, 554, 554, 554, 554, 554, 554, 554, 555, 555, 555, 556, 556, 556, 556, 556, 557, 557, 557, 557, 557, 557, 557, 557, 557, 557, 557, 556, 556, 556, 556, 556, 556, 556, 556, 556, 556, 556, 556, 556, 556, 557, 557, 557, 557, 557, 558, 558, 558, 558, 558, 559, 559, 559, 560, 560, 560, 560, 560, 560, 560, 560, 561, 561, 561, 767, 767, 767, 766, 765, 765, 765, 764, 764, 764, 764, 763, 762, 762, 762, 762, 762
664, 665, 667, 667, 668, 668, 670, 672, 672, 673, 675, 675, 676, 677, 677, 678, 680, 680, 684, 684, 689, 694, 700, 700, 706, 713, 713, 719, 724, 724, 730, 733, 733, 735, 736, 736, 737, 737, 738, 740, 740, 740, 741, 741, 742, 743, 743, 744, 743, 743, 743, 743, 744, 744, 744, 744, 0, 0, 0, 0, 0, 0, 0, 0, 0, 0, 0, 0, 0, 0, 0, 0, 0, 0, 0, 0, 540, 540, 540, 540, 540, 540, 539, 539, 539, 539, 539, 539, 539, 539, 539, 539, 539, 539, 539, 539, 539, 539, 538, 538, 538, 538, 538, 537, 537, 537, 537, 537, 537, 537, 538, 538, 538, 538, 539, 539, 539, 540, 540, 540, 540, 540, 540, 540, 540, 540, 540, 540, 540, 540, 540, 540, 540, 540, 540, 540, 540, 540, 540, 540, 540, 540, 540, 539, 539, 539, 539, 539, 539, 539, 539, 539, 539, 539, 539, 539, 539, 539, 539, 539, 539, 539, 539, 539, 539, 539, 539, 540, 540, 540, 540, 540, 540, 540, 540, 541, 541, 541, 541, 541, 541, 541, 541, 541, 541, 542, 542, 542, 542, 542, 542, 542, 542, 542, 542, 541, 541, 541, 541, 541, 541, 541, 541, 541, 541, 541, 541, 541, 541, 541, 541, 541, 542, 542, 542, 542, 542, 542, 542, 542, 542, 542, 542, 542, 542, 542, 542, 542, 542, 543, 543, 543, 543, 543, 543, 543, 543, 543, 543, 542, 542, 542, 542, 542, 542, 542, 542, 542, 542, 542, 542, 542, 542, 542, 542, 542, 542, 542, 542, 542, 542, 542, 542, 543, 543, 543, 543, 543, 543, 543, 543, 543, 544, 544, 544, 544, 544, 545, 545, 545, 546, 546, 546, 546, 546, 547, 547, 547, 547, 547, 547, 547, 547, 547, 547, 547, 547, 547, 547, 547, 547, 547, 547, 547, 547, 547, 547, 548, 548, 548, 548, 548, 548, 548, 548, 548, 549, 549, 549, 549, 549, 549, 549, 549, 549, 549, 549, 549, 549, 549, 549, 549, 549, 549, 549, 549, 549, 549, 549, 549, 550, 550, 550, 550, 550, 550, 549, 549, 550, 550, 550, 550, 549, 549, 549, 549, 549, 549, 549, 549, 549, 549, 549, 549, 549, 549, 550, 550, 550, 550, 550, 550, 550, 550, 550, 550, 550, 550, 550, 550, 550, 550, 550, 550, 550, 549, 549, 549, 549, 549, 549, 549, 549, 549, 549, 549, 549, 549, 549, 549, 549, 549, 549, 549, 548, 548, 548, 548, 548, 548, 548, 548, 548, 548, 548, 548, 549, 549, 549, 549, 550, 550, 550, 551, 551, 551, 552, 552, 552, 553, 553, 553, 553, 553, 553, 553, 553, 553, 553, 553, 553, 553, 553, 553, 553, 553, 553, 553, 553, 553, 553, 553, 553, 553, 552, 552, 552, 552, 551, 551, 551, 551, 551, 551, 551, 551, 552, 552, 552, 552, 552, 552, 552, 552, 552, 553, 553, 553, 553, 553, 553, 553, 553, 553, 553, 552, 552, 552, 552, 552, 552, 552, 552, 551, 551, 551, 552, 552, 552, 552, 552, 552, 552, 552, 552, 553, 553, 553, 553, 553, 553, 553, 553, 553, 553, 554, 554, 554, 554, 554, 554, 554, 554, 554, 554, 554, 554, 554, 554, 554, 554, 555, 555, 555, 556, 556, 556, 556, 556, 557, 557, 557, 557, 557, 557, 557, 557, 557, 557, 557, 556, 556, 556, 556, 556, 556, 556, 556, 556, 556, 556, 556, 556, 556, 557, 557, 557, 557, 557, 558, 558, 558, 558, 558, 559, 559, 559, 560, 560, 560, 560, 560, 560, 560, 560, 561, 561, 561, 767, 767, 767, 766, 765, 765, 765, 764, 764, 764, 764, 763, 762, 762, 762, 762, 762
664, 665, 667, 667, 668, 668, 670, 672, 672, 673, 675, 675, 676, 677, 677, 678, 680, 680, 684, 684, 689, 694, 700, 700, 706, 713, 713, 719, 724, 724, 730, 732, 732, 735, 736, 736, 736, 736, 738, 739, 739, 740, 741, 741, 742, 743, 743, 744, 743, 743, 743, 743, 743, 743, 743, 743, 0, 0, 0, 0, 0, 0, 0, 0, 0, 0, 0, 0, 0, 0, 0, 0, 0, 0, 0, 0, 540, 540, 540, 540, 540, 540, 539, 539, 539, 539, 539, 539, 539, 539, 539, 539, 539, 539, 539, 539, 539, 539, 538, 538, 538, 538, 538, 537, 537, 537, 537, 537, 537, 537, 538, 538, 538, 539, 539, 539, 539, 540, 540, 540, 540, 540, 540, 540, 540, 540, 540, 540, 540, 540, 540, 540, 540, 540, 540, 540, 540, 540, 540, 540, 540, 540, 540, 539, 539, 539, 539, 539, 539, 539, 539, 539, 539, 539, 539, 539, 539, 539, 539, 539, 539, 539, 539, 540, 540, 540, 540, 540, 540, 540, 540, 540, 540, 540, 541, 541, 541, 541, 541, 541, 541, 541, 541, 541, 541, 542, 542, 542, 542, 542, 542, 542, 542, 542, 542, 541, 541, 541, 541, 541, 541, 541, 541, 541, 541, 541, 541, 541, 541, 541, 541, 541, 542, 542, 542, 542, 542, 542, 542, 542, 542, 542, 542, 542, 542, 542, 542, 542, 543, 543, 543, 543, 543, 543, 543, 543, 543, 543, 543, 543, 543, 542, 542, 542, 542, 542, 542, 542, 542, 542, 542, 542, 542, 542, 542, 542, 542, 542, 542, 542, 542, 543, 543, 543, 543, 543, 543, 543, 543, 543, 544, 544, 544, 544, 544, 544, 544, 545, 545, 545, 546, 546, 546, 546, 546, 547, 547, 547, 547, 547, 547, 547, 547, 547, 547, 547, 547, 547, 547, 547, 547, 547, 547, 547, 547, 547, 547, 548, 548, 548, 548, 548, 548, 548, 548, 548, 549, 549, 549, 549, 549, 549, 549, 549, 549, 549, 549, 549, 549, 549, 549, 549, 549, 549, 549, 549, 549, 549, 549, 549, 549, 549, 549, 549, 549, 549, 549, 549, 549, 549, 549, 549, 549, 549, 549, 549, 549, 549, 549, 549, 549, 549, 549, 549, 549, 549, 550, 550, 550, 550, 550, 550, 550, 550, 550, 550, 550, 550, 550, 550, 550, 550, 550, 550, 550, 549, 549, 549, 549, 549, 549, 549, 549, 549, 549, 549, 549, 549, 549, 549, 549, 549, 549, 548, 548, 548, 548, 548, 548, 547, 547, 547, 547, 547, 547, 548, 548, 548, 549, 549, 549, 550, 550, 551, 551, 551, 552, 552, 552, 553, 553, 553, 553, 553, 553, 553, 553, 553, 553, 553, 553, 553, 553, 553, 553, 553, 553, 553, 553, 553, 553, 553, 553, 553, 552, 552, 552, 552, 552, 552, 552, 552, 552, 552, 552, 552, 552, 552, 552, 552, 552, 552, 552, 552, 552, 553, 552, 552, 553, 553, 553, 553, 552, 552, 552, 552, 552, 552, 552, 552, 552, 552, 551, 551, 551, 551, 552, 552, 552, 552, 552, 552, 552, 552, 552, 553, 552, 552, 552, 553, 553, 553, 553, 553, 553, 553, 554, 554, 554, 554, 554, 554, 554, 554, 554, 554, 554, 554, 555, 555, 555, 556, 556, 556, 556, 556, 557, 557, 557, 557, 558, 557, 557, 557, 557, 557, 557, 557, 557, 557, 557, 557, 557, 557, 557, 557, 557, 557, 557, 557, 557, 557, 557, 557, 557, 557, 558, 558, 558, 558, 559, 559, 559, 559, 560, 560, 560, 560, 560, 560, 561, 561, 561, 561, 561, 561, 561, 561, 767, 767, 767, 767, 766, 766, 766, 765, 765, 764, 764, 764, 763, 763, 763, 762, 762
664, 665, 667, 667, 668, 668, 670, 672, 672, 673, 675, 675, 676, 677, 677, 678, 681, 681, 684, 689, 689, 694, 701, 701, 706, 713, 713, 719, 724, 724, 730, 732, 732, 735, 736, 736, 736, 736, 738, 739, 739, 740, 741, 741, 742, 743, 743, 744, 743, 743, 743, 743, 743, 743, 743, 743, 0, 0, 0, 0, 0, 0, 0, 0, 0, 0, 0, 0, 0, 0, 0, 0, 0, 0, 0, 0, 541, 541, 540, 540, 540, 540, 540, 540, 539, 539, 539, 539, 539, 539, 539, 539, 539, 538, 538, 538, 539, 538, 538, 538, 538, 537, 537, 537, 537, 537, 537, 537, 537, 537, 538, 538, 538, 539, 539, 539, 539, 540, 540, 540, 540, 540, 540, 540, 540, 540, 540, 540, 540, 540, 540, 540, 540, 540, 540, 540, 540, 540, 540, 540, 540, 539, 539, 539, 539, 539, 539, 539, 539, 539, 539, 539, 539, 539, 539, 539, 539, 539, 539, 539, 539, 539, 539, 540, 540, 540, 540, 540, 540, 540, 540, 540, 540, 540, 541, 541, 541, 541, 541, 541, 541, 541, 541, 541, 541, 542, 542, 542, 542, 542, 542, 542, 541, 541, 541, 541, 541, 541, 541, 541, 541, 541, 541, 541, 541, 541, 541, 541, 541, 541, 541, 541, 541, 542, 542, 542, 542, 542, 542, 542, 542, 542, 542, 542, 542, 542, 542, 542, 543, 543, 543, 543, 543, 543, 543, 543, 543, 543, 543, 543, 543, 542, 542, 542, 542, 542, 542, 542, 542, 542, 542, 542, 542, 542, 542, 542, 542, 542, 542, 542, 542, 543, 543, 543, 543, 543, 543, 543, 543, 543, 544, 544, 544, 544, 544, 545, 545, 545, 546, 546, 546, 547, 547, 547, 547, 547, 547, 547, 548, 548, 548, 548, 547, 547, 547, 547, 547, 547, 547, 548, 548, 548, 548, 548, 548, 548, 548, 548, 548, 548, 548, 548, 548, 548, 548, 549, 549, 549, 549, 549, 549, 549, 549, 549, 549, 549, 549, 549, 549, 549, 549, 549, 549, 549, 549, 549, 549, 549, 549, 549, 549, 549, 549, 549, 549, 549, 549, 549, 549, 549, 549, 549, 549, 549, 549, 549, 549, 549, 549, 549, 549, 549, 549, 549, 549, 549, 550, 550, 550, 550, 550, 550, 550, 550, 550, 550, 550, 550, 550, 550, 550, 550, 550, 550, 550, 550, 550, 550, 550, 550, 549, 549, 549, 549, 549, 549, 549, 549, 549, 549, 549, 548, 548, 548, 548, 548, 548, 548, 548, 547, 547, 547, 547, 547, 547, 548, 548, 548, 549, 549, 549, 550, 550, 551, 551, 551, 552, 552, 552, 553, 553, 553, 553, 553, 553, 553, 553, 553, 553, 553, 553, 553, 553, 553, 553, 553, 553, 553, 553, 553, 553, 553, 553, 553, 553, 552, 552, 552, 552, 552, 552, 552, 552, 552, 552, 552, 552, 552, 552, 552, 552, 552, 552, 552, 552, 553, 552, 552, 553, 553, 553, 553, 552, 552, 552, 552, 552, 552, 552, 552, 552, 552, 551, 551, 551, 551, 552, 552, 552, 552, 552, 552, 552, 552, 552, 553, 552, 552, 552, 553, 553, 553, 553, 553, 553, 553, 554, 554, 554, 554, 554, 554, 554, 554, 554, 554, 554, 554, 555, 555, 555, 556, 557, 557, 557, 557, 557, 558, 558, 558, 558, 558, 558, 558, 558, 558, 558, 558, 558, 557, 557, 557, 557, 557, 557, 557, 557, 557, 557, 557, 557, 557, 557, 558, 558, 558, 558, 558, 558, 559, 560, 560, 560, 560, 560, 560, 560, 560, 561, 561, 561, 561, 561, 561, 561, 561, 561, 561, 767, 767, 767, 767, 766, 766, 766, 765, 765, 764, 764, 764, 763, 763, 763, 762, 762
664, 665, 667, 667, 668, 668, 670, 672, 672, 673, 675, 675, 676, 677, 677, 678, 681, 681, 684, 689, 689, 694, 700, 700, 706, 712, 712, 719, 724, 724, 730, 732, 732, 734, 736, 736, 736, 736, 738, 739, 739, 740, 741, 741, 742, 743, 743, 744, 743, 743, 743, 743, 743, 743, 743, 743, 743, 743, 0, 0, 0, 0, 0, 0, 0, 0, 0, 0, 0, 0, 0, 0, 0, 0, 0, 0, 541, 541, 540, 540, 540, 539, 539, 539, 539, 539, 539, 539, 539, 539, 539, 539, 539, 538, 538, 538, 538, 538, 538, 538, 538, 537, 537, 537, 537, 537, 537, 537, 537, 537, 538, 538, 538, 539, 539, 539, 539, 540, 540, 540, 540, 540, 540, 540, 540, 540, 540, 540, 540, 540, 540, 540, 540, 539, 539, 539, 539, 539, 539, 539, 539, 539, 539, 539, 538, 538, 538, 539, 539, 539, 539, 539, 539, 539, 539, 539, 539, 539, 539, 539, 539, 540, 540, 540, 540, 540, 540, 540, 540, 541, 541, 541, 541, 541, 541, 541, 541, 541, 541, 541, 541, 541, 541, 541, 541, 541, 542, 542, 542, 542, 541, 541, 541, 541, 541, 541, 541, 541, 541, 541, 541, 541, 541, 541, 541, 541, 541, 541, 541, 541, 541, 541, 541, 542, 542, 542, 542, 542, 542, 542, 542, 542, 542, 542, 542, 542, 543, 543, 543, 543, 543, 543, 544, 544, 544, 544, 544, 544, 543, 543, 543, 543, 542, 542, 542, 542, 542, 542, 542, 542, 542, 542, 542, 542, 542, 542, 542, 542, 542, 542, 542, 543, 543, 543, 543, 543, 543, 543, 543, 544, 544, 544, 544, 544, 545, 545, 545, 546, 546, 546, 547, 547, 547, 547, 547, 547, 548, 548, 548, 548, 548, 548, 548, 548, 548, 548, 548, 548, 548, 548, 548, 548, 548, 548, 548, 548, 548, 548, 548, 548, 548, 548, 548, 549, 549, 549, 549, 549, 549, 550, 550, 550, 550, 549, 549, 549, 549, 549, 549, 550, 549, 549, 550, 549, 549, 550, 550, 550, 550, 550, 550, 550, 550, 550, 550, 550, 550, 550, 550, 549, 549, 549, 549, 549, 549, 549, 549, 549, 549, 549, 549, 549, 549, 549, 549, 549, 550, 550, 550, 550, 550, 550, 550, 551, 551, 551, 551, 551, 551, 551, 551, 551, 551, 551, 551, 551, 551, 550, 550, 550, 550, 550, 550, 550, 550, 550, 549, 549, 549, 549, 549, 548, 548, 548, 547, 547, 547, 547, 547, 547, 547, 547, 547, 547, 547, 547, 548, 548, 548, 548, 549, 550, 550, 550, 551, 551, 552, 552, 552, 553, 553, 553, 553, 553, 553, 553, 553, 553, 553, 553, 553, 553, 553, 553, 553, 553, 553, 553, 553, 553, 553, 553, 553, 553, 553, 552, 552, 552, 552, 552, 552, 552, 552, 552, 552, 552, 552, 552, 552, 552, 552, 552, 552, 552, 552, 553, 552, 552, 553, 552, 552, 552, 552, 552, 552, 552, 552, 552, 552, 552, 551, 551, 551, 551, 551, 551, 552, 552, 552, 552, 552, 552, 552, 552, 552, 552, 552, 552, 552, 553, 553, 553, 553, 553, 553, 553, 553, 553, 554, 554, 554, 554, 554, 554, 554, 554, 554, 554, 555, 555, 555, 556, 557, 557, 557, 557, 557, 558, 558, 558, 558, 558, 558, 558, 558, 558, 558, 558, 558, 557, 557, 557, 557, 557, 557, 557, 557, 557, 557, 557, 557, 557, 557, 558, 558, 558, 558, 558, 558, 559, 560, 560, 560, 560, 560, 560, 560, 560, 561, 561, 561, 561, 561, 561, 561, 561, 561, 561, 561, 767, 767, 767, 766, 766, 766, 765, 765, 765, 765, 765, 764, 764, 764, 763, 763
664, 665, 667, 667, 668, 668, 670, 672, 672, 674, 675, 675, 676, 678, 678, 678, 681, 681, 684, 689, 689, 694, 700, 700, 706, 712, 712, 719, 724, 724, 730, 732, 732, 734, 736, 736, 736, 736, 738, 739, 739, 740, 741, 741, 742, 743, 743, 744, 744, 744, 744, 743, 743, 743, 743, 743, 743, 743, 0, 0, 0, 0, 0, 0, 0, 0, 0, 0, 0, 0, 0, 0, 0, 0, 0, 0, 0, 0, 540, 540, 540, 539, 539, 539, 539, 539, 539, 539, 539, 539, 539, 539, 539, 538, 538, 538, 538, 538, 538, 538, 538, 537, 537, 537, 537, 537, 537, 537, 537, 537, 538, 538, 538, 539, 539, 539, 539, 540, 540, 540, 540, 540, 540, 540, 540, 540, 540, 540, 540, 540, 540, 540, 540, 539, 539, 539, 539, 539, 539, 539, 539, 539, 539, 539, 538, 538, 538, 539, 539, 539, 539, 539, 539, 539, 539, 539, 539, 539, 539, 540, 540, 540, 540, 540, 540, 540, 540, 541, 541, 541, 541, 541, 541, 541, 541, 541, 541, 541, 541, 541, 541, 541, 541, 541, 541, 541, 542, 542, 542, 542, 541, 541, 541, 541, 541, 541, 541, 541, 541, 541, 541, 541, 541, 541, 541, 541, 541, 541, 541, 541, 542, 542, 542, 542, 542, 542, 542, 542, 542, 542, 542, 542, 542, 542, 542, 542, 543, 543, 543, 543, 543, 543, 544, 544, 544, 544, 544, 544, 543, 543, 543, 543, 542, 542, 542, 542, 542, 542, 542, 542, 542, 542, 542, 542, 542, 542, 542, 542, 542, 542, 542, 543, 543, 543, 543, 543, 543, 543, 543, 544, 544, 544, 544, 544, 545, 545, 545, 546, 546, 546, 547, 547, 547, 547, 547, 547, 548, 548, 548, 548, 548, 548, 548, 548, 548, 548, 548, 548, 548, 548, 548, 548, 548, 548, 548, 548, 548, 548, 548, 548, 548, 548, 548, 549, 549, 549, 549, 549, 549, 550, 550, 550, 550, 549, 549, 549, 549, 549, 549, 550, 549, 549, 550, 549, 549, 550, 550, 550, 550, 550, 550, 550, 550, 550, 549, 549, 549, 549, 549, 549, 549, 549, 549, 549, 549, 549, 549, 549, 549, 549, 549, 549, 549, 549, 549, 549, 549, 550, 550, 550, 550, 550, 550, 551, 551, 551, 551, 551, 551, 551, 551, 551, 551, 551, 551, 551, 551, 550, 550, 550, 550, 550, 550, 550, 550, 550, 549, 549, 549, 549, 549, 548, 548, 548, 547, 547, 547, 547, 547, 547, 547, 546, 546, 547, 547, 547, 547, 547, 548, 548, 549, 549, 549, 550, 551, 551, 552, 552, 552, 553, 553, 553, 553, 553, 553, 553, 553, 553, 553, 553, 553, 553, 553, 553, 553, 553, 553, 553, 553, 553, 553, 553, 553, 553, 553, 553, 553, 553, 553, 553, 553, 553, 553, 553, 553, 553, 553, 553, 553, 553, 553, 553, 553, 553, 553, 553, 552, 552, 552, 552, 552, 552, 552, 552, 552, 552, 552, 552, 552, 552, 551, 551, 551, 551, 552, 552, 552, 552, 552, 552, 552, 552, 552, 552, 552, 552, 552, 552, 552, 553, 553, 553, 553, 553, 553, 553, 553, 553, 554, 554, 554, 554, 554, 554, 554, 554, 555, 555, 555, 556, 556, 556, 557, 557, 557, 558, 558, 558, 558, 558, 558, 558, 558, 558, 558, 558, 558, 558, 558, 558, 558, 558, 557, 557, 557, 557, 558, 558, 558, 558, 558, 558, 558, 558, 559, 559, 559, 559, 559, 560, 560, 560, 560, 560, 560, 560, 560, 561, 561, 561, 561, 561, 561, 561, 561, 561, 561, 561, 561, 767, 767, 767, 767, 767, 766, 765, 765, 765, 765, 765, 764, 764, 764, 764, 764
664, 665, 667, 667, 669, 669, 670, 672, 672, 674, 675, 675, 677, 678, 678, 679, 681, 681, 684, 689, 689, 694, 700, 700, 706, 712, 712, 719, 724, 724, 730, 732, 732, 734, 736, 736, 736, 736, 737, 739, 739, 740, 741, 741, 742, 743, 743, 744, 744, 744, 744, 743, 743, 743, 743, 743, 743, 743, 0, 0, 0, 0, 0, 0, 0, 0, 0, 0, 0, 0, 0, 0, 0, 0, 0, 0, 0, 0, 540, 540, 540, 539, 539, 539, 539, 539, 539, 539, 539, 539, 539, 539, 539, 538, 538, 538, 538, 538, 538, 538, 537, 537, 537, 537, 537, 537, 537, 537, 537, 537, 538, 538, 538, 539, 539, 539, 539, 540, 540, 540, 540, 540, 540, 540, 540, 540, 540, 540, 540, 540, 540, 539, 539, 539, 539, 539, 539, 539, 539, 539, 539, 538, 538, 538, 538, 538, 538, 538, 538, 538, 538, 538, 538, 539, 539, 539, 539, 539, 539, 540, 540, 540, 540, 540, 540, 540, 540, 540, 540, 540, 540, 541, 541, 541, 541, 541, 541, 541, 541, 541, 541, 541, 541, 541, 541, 541, 541, 541, 541, 541, 541, 541, 541, 541, 541, 541, 541, 541, 541, 541, 541, 541, 541, 541, 541, 541, 541, 541, 541, 541, 542, 542, 542, 542, 542, 542, 542, 542, 542, 542, 542, 542, 542, 542, 543, 543, 543, 543, 543, 544, 544, 544, 544, 544, 544, 544, 544, 544, 543, 543, 543, 543, 543, 543, 542, 542, 542, 542, 542, 542, 542, 542, 542, 542, 542, 542, 542, 542, 542, 543, 543, 543, 543, 543, 543, 543, 544, 544, 544, 544, 545, 545, 545, 545, 545, 546, 546, 546, 547, 547, 547, 547, 547, 548, 547, 547, 548, 548, 548, 548, 548, 548, 548, 548, 548, 548, 548, 548, 548, 548, 548, 548, 549, 549, 548, 548, 548, 548, 549, 549, 549, 548, 548, 549, 549, 549, 549, 549, 549, 550, 550, 550, 550, 550, 550, 550, 550, 550, 550, 550, 550, 550, 550, 550, 550, 550, 550, 550, 550, 550, 550, 550, 549, 549, 549, 549, 549, 549, 549, 549, 549, 549, 549, 549, 549, 549, 549, 549, 549, 549, 549, 549, 549, 549, 549, 549, 549, 550, 550, 550, 550, 550, 551, 551, 551, 551, 551, 551, 551, 551, 551, 551, 551, 551, 551, 551, 551, 551, 551, 551, 551, 551, 551, 550, 550, 550, 550, 550, 549, 549, 549, 548, 548, 548, 547, 547, 547, 547, 547, 547, 547, 546, 546, 547, 547, 547, 547, 547, 548, 548, 549, 549, 549, 550, 551, 551, 552, 552, 552, 553, 553, 553, 553, 553, 553, 553, 553, 553, 553, 553, 553, 553, 553, 553, 553, 553, 553, 553, 553, 553, 553, 553, 553, 553, 553, 553, 553, 553, 553, 553, 553, 553, 553, 553, 553, 553, 553, 553, 553, 553, 553, 553, 553, 553, 553, 553, 552, 552, 552, 552, 552, 552, 552, 552, 552, 552, 552, 552, 552, 552, 551, 551, 551, 551, 552, 552, 552, 552, 552, 552, 552, 552, 552, 552, 552, 552, 552, 552, 552, 553, 553, 553, 553, 553, 553, 553, 553, 553, 554, 554, 554, 554, 554, 554, 554, 554, 555, 555, 555, 556, 556, 556, 557, 557, 557, 558, 558, 558, 558, 558, 558, 558, 558, 558, 558, 558, 558, 558, 558, 558, 558, 558, 557, 557, 557, 557, 558, 558, 558, 558, 558, 558, 558, 558, 559, 559, 559, 559, 559, 560, 560, 560, 560, 560, 560, 560, 560, 561, 561, 561, 561, 560, 560, 561, 561, 561, 561, 561, 561, 767, 767, 767, 767, 767, 766, 765, 765, 765, 765, 765, 764, 764, 764, 764, 764
664, 665, 667, 667, 669, 669, 670, 672, 672, 674, 675, 675, 677, 678, 678, 679, 681, 681, 684, 689, 689, 694, 700, 700, 706, 712, 712, 719, 724, 724, 729, 731, 731, 734, 736, 736, 736, 736, 737, 739, 739, 740, 741, 741, 742, 743, 743, 744, 744, 743, 743, 742, 742, 743, 743, 743, 743, 743, 0, 0, 0, 0, 0, 0, 0, 0, 0, 0, 0, 0, 0, 0, 0, 0, 0, 0, 0, 0, 540, 540, 540, 539, 539, 539, 539, 539, 539, 539, 539, 539, 539, 539, 539, 538, 538, 538, 538, 538, 538, 538, 537, 537, 537, 537, 537, 537, 537, 537, 537, 537, 538, 538, 538, 539, 539, 539, 539, 540, 540, 540, 540, 540, 540, 540, 540, 540, 540, 540, 540, 540, 540, 539, 539, 539, 539, 539, 538, 538, 538, 538, 538, 538, 538, 538, 538, 538, 538, 538, 538, 538, 538, 538, 538, 538, 538, 539, 539, 539, 539, 539, 539, 540, 540, 540, 540, 540, 540, 540, 540, 540, 540, 541, 541, 541, 541, 541, 541, 541, 541, 541, 541, 541, 541, 541, 541, 541, 541, 541, 541, 541, 541, 541, 541, 541, 541, 541, 541, 541, 541, 541, 541, 541, 541, 541, 541, 541, 541, 541, 541, 542, 542, 542, 542, 542, 542, 542, 542, 542, 542, 542, 543, 543, 543, 543, 543, 543, 543, 543, 543, 544, 544, 544, 544, 544, 544, 544, 544, 544, 544, 543, 543, 543, 543, 543, 543, 543, 543, 543, 543, 543, 542, 542, 542, 542, 542, 543, 543, 543, 543, 543, 543, 543, 544, 544, 544, 544, 544, 544, 544, 545, 545, 545, 545, 545, 546, 546, 546, 546, 547, 547, 547, 547, 547, 548, 547, 547, 548, 548, 548, 548, 548, 548, 548, 548, 548, 548, 548, 548, 548, 548, 548, 548, 549, 549, 549, 549, 549, 549, 549, 549, 549, 549, 549, 549, 549, 549, 549, 549, 549, 550, 550, 550, 550, 550, 551, 551, 551, 551, 551, 551, 550, 550, 550, 550, 550, 550, 550, 550, 550, 550, 550, 550, 549, 549, 549, 549, 549, 549, 549, 549, 549, 549, 549, 549, 549, 549, 549, 549, 549, 549, 549, 549, 549, 549, 549, 549, 549, 550, 550, 550, 550, 550, 550, 551, 551, 551, 551, 551, 551, 551, 551, 551, 551, 551, 551, 551, 551, 551, 551, 551, 551, 551, 551, 550, 550, 550, 550, 550, 549, 549, 549, 548, 548, 548, 547, 547, 547, 547, 547, 546, 546, 546, 546, 546, 546, 547, 547, 547, 548, 548, 548, 549, 549, 550, 551, 551, 551, 552, 552, 552, 552, 553, 553, 553, 553, 553, 553, 553, 553, 553, 553, 553, 553, 553, 553, 553, 553, 553, 553, 553, 553, 553, 553, 553, 553, 553, 553, 553, 553, 553, 553, 553, 553, 553, 553, 553, 553, 553, 553, 553, 553, 553, 553, 553, 553, 553, 552, 552, 552, 552, 552, 552, 552, 552, 552, 552, 552, 552, 552, 552, 551, 551, 551, 551, 552, 552, 552, 552, 552, 552, 552, 552, 552, 552, 552, 552, 552, 552, 552, 553, 553, 553, 553, 553, 553, 553, 553, 553, 554, 554, 554, 554, 554, 554, 554, 554, 555, 555, 555, 556, 556, 557, 557, 557, 558, 558, 558, 558, 558, 558, 558, 558, 558, 558, 558, 558, 558, 558, 558, 557, 557, 557, 557, 558, 558, 558, 558, 558, 558, 558, 558, 558, 558, 558, 559, 559, 560, 560, 560, 560, 560, 560, 560, 560, 560, 560, 560, 561, 561, 560, 560, 560, 560, 561, 561, 561, 561, 561, 561, 767, 767, 767, 767, 767, 767, 766, 766, 766, 765, 765, 765, 765, 765, 765, 765
664, 665, 667, 667, 669, 669, 670, 672, 672, 674, 676, 676, 678, 678, 678, 680, 681, 681, 684, 689, 689, 694, 700, 700, 706, 712, 712, 719, 724, 724, 729, 731, 731, 734, 736, 736, 737, 737, 738, 739, 739, 740, 741, 741, 742, 743, 743, 744, 744, 743, 743, 742, 742, 744, 743, 743, 743, 743, 0, 0, 0, 0, 0, 0, 0, 0, 0, 0, 0, 0, 0, 0, 0, 0, 0, 0, 0, 0, 540, 540, 540, 539, 539, 539, 539, 539, 539, 539, 539, 539, 539, 539, 539, 538, 538, 538, 538, 538, 538, 538, 537, 537, 537, 537, 537, 537, 537, 537, 537, 538, 538, 538, 538, 539, 539, 539, 539, 540, 540, 540, 540, 540, 540, 540, 540, 540, 540, 540, 540, 540, 540, 539, 539, 539, 539, 539, 538, 538, 538, 538, 538, 538, 538, 538, 538, 538, 538, 538, 538, 538, 538, 538, 538, 538, 538, 539, 539, 539, 539, 539, 539, 540, 540, 540, 540, 540, 540, 540, 540, 540, 540, 540, 541, 541, 541, 541, 541, 541, 541, 541, 541, 541, 541, 541, 541, 541, 541, 541, 541, 541, 541, 541, 541, 541, 541, 541, 541, 541, 541, 541, 541, 541, 541, 541, 541, 541, 541, 541, 541, 542, 542, 542, 542, 542, 542, 542, 542, 542, 542, 542, 543, 543, 543, 543, 543, 543, 543, 543, 543, 544, 544, 544, 544, 544, 544, 544, 544, 544, 544, 543, 543, 543, 543, 543, 543, 543, 543, 543, 543, 543, 542, 542, 542, 542, 542, 543, 543, 543, 543, 543, 543, 543, 544, 544, 544, 544, 544, 544, 544, 545, 545, 545, 545, 545, 546, 546, 546, 546, 547, 547, 547, 547, 547, 548, 547, 547, 548, 548, 548, 548, 548, 548, 548, 548, 548, 548, 548, 548, 548, 548, 548, 548, 549, 549, 549, 549, 549, 549, 549, 549, 549, 549, 549, 549, 549, 549, 549, 549, 549, 550, 550, 550, 550, 550, 551, 551, 551, 551, 551, 551, 550, 550, 550, 550, 550, 550, 550, 550, 550, 550, 550, 550, 549, 549, 549, 549, 549, 549, 549, 549, 549, 549, 549, 549, 549, 549, 549, 549, 549, 549, 549, 549, 549, 549, 549, 549, 549, 549, 549, 549, 550, 550, 550, 551, 551, 551, 551, 551, 552, 552, 552, 552, 552, 552, 552, 552, 552, 552, 552, 552, 552, 552, 551, 551, 551, 551, 550, 550, 549, 549, 549, 548, 548, 548, 547, 547, 547, 547, 547, 546, 546, 546, 546, 546, 546, 547, 547, 547, 548, 548, 548, 549, 549, 550, 550, 550, 551, 551, 551, 552, 552, 552, 553, 553, 552, 552, 552, 552, 552, 552, 552, 552, 552, 552, 552, 552, 552, 553, 553, 553, 553, 553, 553, 553, 553, 553, 553, 553, 553, 553, 553, 553, 554, 553, 553, 553, 553, 553, 553, 553, 553, 553, 553, 553, 553, 553, 553, 552, 552, 552, 552, 552, 552, 552, 552, 552, 552, 552, 552, 552, 552, 552, 552, 552, 552, 552, 552, 552, 552, 552, 552, 552, 552, 552, 552, 553, 553, 553, 553, 553, 553, 553, 553, 553, 553, 553, 554, 554, 554, 554, 554, 554, 554, 554, 555, 555, 555, 555, 556, 556, 556, 557, 557, 557, 558, 558, 558, 558, 558, 558, 558, 558, 558, 558, 558, 558, 558, 558, 558, 557, 557, 557, 557, 558, 558, 558, 558, 558, 558, 558, 558, 558, 559, 559, 560, 560, 560, 560, 560, 560, 560, 560, 560, 560, 560, 560, 560, 561, 561, 560, 560, 560, 560, 561, 561, 561, 561, 561, 561, 767, 767, 767, 767, 767, 767, 766, 766, 766, 766, 766, 766, 766, 766, 766, 766
664, 665, 667, 667, 669, 669, 670, 672, 672, 674, 676, 676, 678, 678, 678, 680, 681, 681, 684, 689, 689, 694, 700, 700, 706, 712, 712, 718, 724, 724, 728, 731, 731, 734, 736, 736, 737, 737, 738, 739, 739, 740, 741, 741, 742, 743, 743, 744, 744, 743, 743, 742, 742, 743, 743, 743, 743, 742, 742, 742, 0, 0, 0, 0, 0, 0, 0, 0, 0, 0, 0, 0, 0, 0, 0, 0, 0, 0, 540, 540, 540, 539, 539, 539, 539, 539, 539, 539, 539, 539, 539, 539, 538, 538, 538, 538, 538, 538, 538, 538, 537, 537, 537, 537, 537, 537, 537, 537, 537, 538, 538, 538, 538, 539, 539, 539, 539, 540, 540, 540, 540, 540, 540, 540, 540, 540, 540, 540, 539, 539, 539, 539, 539, 539, 539, 538, 538, 538, 538, 538, 538, 538, 538, 538, 538, 538, 538, 538, 538, 538, 538, 538, 538, 538, 538, 539, 539, 539, 539, 539, 539, 540, 540, 540, 540, 540, 540, 540, 540, 540, 540, 540, 540, 540, 540, 541, 541, 541, 541, 541, 541, 541, 541, 541, 541, 541, 541, 541, 541, 541, 541, 541, 541, 541, 541, 541, 541, 541, 541, 541, 541, 541, 541, 541, 541, 541, 541, 542, 542, 542, 542, 542, 542, 542, 542, 542, 542, 542, 542, 542, 543, 543, 543, 543, 543, 543, 543, 543, 544, 544, 544, 544, 545, 544, 544, 544, 544, 544, 544, 544, 544, 544, 543, 543, 543, 543, 543, 543, 543, 543, 543, 543, 543, 543, 543, 543, 543, 543, 543, 543, 543, 544, 544, 544, 544, 544, 545, 545, 545, 545, 545, 545, 546, 546, 546, 546, 546, 546, 547, 547, 547, 547, 547, 548, 548, 548, 548, 548, 548, 548, 548, 548, 548, 548, 548, 548, 548, 548, 548, 549, 549, 549, 549, 549, 549, 549, 549, 549, 549, 549, 549, 549, 549, 549, 549, 549, 549, 549, 550, 550, 550, 550, 550, 551, 551, 551, 551, 551, 551, 551, 551, 551, 551, 551, 551, 551, 550, 550, 550, 550, 550, 550, 549, 549, 549, 549, 549, 549, 549, 549, 549, 549, 549, 549, 549, 549, 549, 549, 549, 549, 549, 549, 549, 549, 549, 549, 549, 549, 549, 549, 550, 550, 550, 551, 551, 551, 551, 552, 552, 552, 552, 552, 552, 553, 553, 553, 553, 552, 552, 552, 552, 552, 552, 552, 552, 551, 551, 551, 550, 550, 549, 548, 548, 548, 547, 547, 547, 547, 547, 546, 546, 546, 546, 547, 547, 547, 548, 548, 548, 548, 548, 549, 549, 550, 550, 550, 551, 551, 551, 552, 552, 552, 553, 553, 552, 552, 552, 552, 552, 552, 552, 552, 552, 552, 552, 552, 552, 553, 553, 553, 553, 553, 553, 553, 553, 553, 553, 553, 554, 554, 554, 554, 554, 554, 554, 554, 554, 554, 554, 553, 553, 553, 553, 553, 553, 553, 553, 552, 552, 552, 552, 552, 552, 552, 552, 552, 552, 552, 552, 552, 552, 552, 552, 552, 552, 552, 552, 552, 552, 552, 552, 552, 552, 552, 552, 553, 553, 553, 553, 553, 553, 553, 553, 553, 553, 553, 554, 554, 554, 554, 554, 554, 554, 554, 555, 555, 555, 555, 556, 556, 556, 557, 557, 557, 558, 558, 558, 558, 558, 558, 558, 557, 557, 557, 557, 558, 557, 557, 557, 557, 557, 557, 557, 558, 558, 558, 558, 558, 558, 558, 558, 558, 559, 559, 560, 560, 560, 560, 560, 560, 560, 560, 560, 560, 560, 560, 560, 560, 560, 560, 560, 560, 560, 560, 560, 560, 560, 560, 561, 767, 767, 767, 767, 767, 767, 766, 766, 766, 766, 766, 766, 766, 766, 766, 766
664, 665, 667, 667, 669, 669, 671, 672, 672, 675, 676, 676, 678, 679, 679, 681, 682, 682, 685, 689, 689, 694, 700, 700, 706, 712, 712, 718, 724, 724, 728, 731, 731, 734, 736, 736, 737, 737, 738, 740, 740, 741, 742, 742, 743, 744, 744, 744, 744, 744, 744, 743, 743, 743, 742, 742, 742, 742, 742, 741, 741, 0, 0, 0, 0, 0, 0, 0, 0, 0, 0, 0, 0, 0, 0, 0, 0, 0, 0, 540, 540, 540, 540, 540, 539, 539, 539, 539, 539, 539, 539, 539, 538, 538, 538, 538, 538, 538, 538, 538, 538, 538, 538, 537, 537, 537, 537, 538, 538, 538, 538, 538, 539, 539, 539, 539, 539, 540, 540, 540, 540, 540, 540, 540, 540, 540, 540, 540, 539, 539, 539, 539, 539, 539, 539, 538, 538, 538, 538, 538, 538, 538, 538, 538, 538, 538, 538, 538, 538, 538, 538, 538, 538, 538, 538, 539, 539, 539, 539, 539, 539, 540, 540, 540, 540, 540, 540, 540, 540, 540, 540, 540, 540, 540, 540, 541, 541, 541, 541, 541, 542, 542, 541, 541, 541, 542, 542, 542, 542, 542, 542, 542, 542, 542, 542, 541, 541, 541, 541, 542, 542, 542, 542, 542, 542, 542, 542, 542, 542, 542, 542, 542, 542, 543, 543, 542, 542, 542, 543, 543, 543, 543, 543, 543, 544, 544, 544, 544, 544, 545, 545, 545, 545, 545, 545, 545, 545, 545, 544, 544, 544, 544, 544, 544, 544, 544, 544, 543, 543, 543, 543, 543, 543, 543, 543, 543, 543, 543, 544, 544, 544, 544, 544, 544, 545, 545, 545, 545, 545, 545, 546, 546, 546, 546, 546, 546, 546, 546, 547, 547, 547, 548, 548, 548, 548, 548, 548, 548, 548, 548, 548, 548, 548, 548, 548, 548, 548, 548, 548, 549, 549, 549, 549, 549, 549, 549, 549, 549, 549, 549, 549, 549, 549, 549, 549, 549, 549, 549, 550, 550, 550, 550, 550, 551, 551, 551, 551, 551, 551, 551, 551, 551, 551, 551, 551, 551, 550, 550, 550, 550, 550, 550, 549, 549, 549, 549, 549, 549, 549, 549, 549, 549, 549, 549, 549, 549, 549, 549, 549, 549, 549, 549, 549, 549, 549, 549, 549, 549, 549, 549, 550, 550, 550, 551, 551, 551, 551, 552, 552, 552, 552, 552, 552, 553, 553, 553, 553, 552, 552, 552, 552, 552, 552, 552, 552, 551, 551, 551, 550, 550, 549, 548, 548, 548, 547, 547, 547, 547, 547, 546, 546, 546, 546, 547, 547, 547, 548, 548, 548, 548, 548, 549, 549, 550, 550, 550, 551, 551, 551, 551, 551, 552, 552, 552, 552, 552, 552, 552, 552, 552, 552, 552, 552, 552, 552, 552, 552, 552, 552, 552, 553, 553, 553, 553, 553, 553, 553, 553, 554, 554, 554, 554, 554, 554, 554, 554, 554, 554, 554, 553, 553, 553, 553, 553, 553, 553, 553, 553, 553, 552, 552, 552, 552, 552, 552, 552, 553, 552, 552, 552, 552, 552, 552, 552, 552, 552, 553, 553, 553, 553, 552, 552, 552, 552, 553, 553, 553, 553, 553, 553, 553, 553, 553, 553, 553, 553, 553, 553, 554, 554, 554, 554, 554, 554, 555, 555, 555, 555, 556, 556, 556, 557, 557, 557, 557, 558, 557, 557, 557, 557, 557, 557, 557, 557, 556, 556, 556, 557, 557, 556, 556, 557, 557, 557, 557, 558, 558, 558, 558, 558, 558, 558, 558, 558, 559, 559, 559, 560, 560, 559, 559, 559, 560, 560, 560, 560, 560, 560, 560, 559, 559, 559, 560, 560, 559, 559, 560, 560, 767, 766, 766, 767, 767, 767, 767, 767, 767, 767, 766, 766, 766, 766, 766, 766, 766
665, 666, 667, 667, 670, 671, 671, 673, 673, 675, 677, 677, 678, 679, 679, 681, 682, 682, 685, 690, 690, 694, 700, 700, 706, 712, 712, 718, 724, 724, 728, 731, 731, 734, 736, 736, 737, 737, 738, 740, 740, 741, 742, 742, 743, 744, 744, 744, 744, 744, 744, 743, 743, 743, 742, 742, 742, 742, 742, 741, 741, 0, 0, 0, 0, 0, 0, 0, 0, 0, 0, 0, 0, 0, 0, 0, 0, 0, 0, 0, 0, 0, 540, 540, 540, 539, 539, 539, 539, 539, 539, 539, 539, 538, 538, 538, 538, 538, 538, 538, 538, 538, 538, 538, 538, 538, 538, 538, 538, 538, 538, 538, 539, 539, 539, 539, 539, 539, 540, 540, 540, 540, 540, 540, 540, 539, 539, 539, 539, 539, 539, 539, 539, 539, 539, 538, 538, 538, 538, 538, 538, 538, 538, 537, 537, 537, 537, 538, 538, 538, 538, 538, 538, 538, 538, 539, 539, 539, 539, 539, 539, 539, 539, 539, 540, 540, 540, 540, 540, 540, 540, 540, 540, 540, 540, 540, 540, 541, 541, 541, 541, 541, 541, 541, 541, 541, 542, 542, 542, 542, 542, 542, 542, 542, 542, 541, 541, 541, 541, 542, 542, 542, 542, 542, 542, 542, 542, 542, 542, 542, 542, 542, 542, 543, 543, 542, 542, 542, 543, 543, 543, 543, 543, 543, 544, 544, 544, 544, 544, 545, 545, 545, 545, 545, 545, 545, 545, 545, 544, 544, 544, 544, 544, 544, 544, 544, 544, 543, 543, 543, 543, 543, 543, 543, 543, 543, 543, 543, 544, 544, 544, 544, 544, 544, 545, 545, 545, 545, 545, 545, 546, 546, 546, 546, 546, 546, 546, 546, 547, 547, 547, 548, 548, 548, 548, 548, 548, 548, 548, 548, 548, 548, 548, 548, 548, 548, 548, 548, 548, 549, 549, 549, 549, 549, 549, 549, 549, 549, 549, 549, 549, 549, 549, 549, 549, 549, 550, 550, 550, 550, 550, 551, 551, 551, 551, 551, 551, 551, 551, 551, 551, 551, 551, 551, 551, 551, 551, 551, 550, 550, 550, 550, 549, 549, 549, 549, 549, 549, 549, 549, 549, 549, 549, 549, 549, 549, 549, 549, 549, 549, 549, 549, 549, 549, 549, 549, 549, 549, 549, 549, 550, 550, 550, 551, 551, 551, 551, 551, 552, 552, 553, 553, 553, 553, 553, 553, 553, 553, 553, 553, 553, 552, 552, 552, 552, 551, 551, 551, 550, 550, 550, 548, 548, 548, 547, 547, 547, 547, 547, 547, 547, 547, 547, 547, 547, 547, 548, 548, 548, 548, 549, 549, 549, 550, 550, 550, 551, 551, 551, 551, 551, 552, 552, 552, 552, 552, 552, 552, 552, 552, 552, 552, 552, 552, 552, 552, 552, 552, 552, 552, 553, 553, 553, 553, 553, 553, 554, 554, 554, 554, 554, 554, 554, 554, 554, 554, 554, 554, 554, 554, 554, 554, 554, 554, 553, 553, 553, 553, 553, 553, 553, 553, 553, 553, 553, 553, 553, 553, 553, 553, 553, 553, 553, 553, 553, 553, 553, 553, 553, 553, 553, 553, 553, 553, 553, 553, 553, 553, 553, 553, 553, 553, 553, 553, 553, 553, 553, 553, 554, 554, 554, 554, 554, 555, 555, 555, 555, 555, 556, 556, 556, 557, 557, 557, 557, 558, 557, 557, 557, 557, 557, 557, 557, 557, 556, 556, 556, 557, 557, 556, 556, 557, 557, 557, 557, 558, 558, 558, 558, 558, 558, 558, 558, 558, 559, 559, 559, 560, 560, 559, 559, 559, 560, 560, 560, 560, 560, 560, 560, 559, 559, 559, 560, 560, 559, 559, 560, 560, 767, 766, 766, 767, 767, 767, 767, 767, 767, 767, 767, 767, 766, 766, 766, 766, 766
665, 666, 667, 667, 670, 671, 671, 673, 673, 675, 677, 677, 678, 679, 679, 681, 682, 682, 685, 690, 690, 694, 700, 700, 706, 711, 711, 717, 723, 723, 727, 730, 730, 734, 736, 736, 737, 737, 738, 740, 740, 741, 742, 742, 743, 744, 744, 744, 744, 744, 744, 742, 742, 742, 742, 742, 742, 742, 742, 741, 741, 0, 0, 0, 0, 0, 0, 0, 0, 0, 0, 0, 0, 0, 0, 0, 0, 0, 0, 540, 540, 540, 540, 540, 540, 539, 539, 539, 539, 539, 539, 539, 539, 538, 538, 538, 538, 538, 538, 538, 538, 538, 538, 538, 538, 538, 538, 538, 538, 538, 539, 539, 539, 539, 539, 539, 539, 539, 540, 540, 540, 540, 539, 539, 539, 539, 539, 539, 539, 539, 539, 539, 539, 538, 538, 538, 538, 538, 538, 538, 538, 538, 538, 537, 537, 537, 537, 538, 538, 538, 538, 538, 538, 538, 538, 539, 539, 539, 539, 539, 539, 539, 539, 539, 539, 539, 539, 539, 539, 540, 539, 539, 540, 540, 540, 540, 540, 540, 541, 541, 541, 541, 541, 541, 541, 541, 542, 542, 542, 542, 542, 542, 542, 542, 542, 542, 542, 542, 542, 542, 542, 542, 542, 542, 542, 542, 542, 542, 542, 542, 542, 542, 543, 543, 543, 543, 543, 543, 543, 543, 543, 543, 543, 544, 544, 544, 544, 544, 545, 545, 545, 545, 545, 545, 545, 545, 545, 545, 545, 545, 545, 545, 544, 544, 544, 544, 544, 544, 544, 543, 543, 543, 543, 544, 544, 544, 544, 544, 544, 544, 544, 544, 545, 545, 545, 545, 545, 545, 545, 546, 546, 546, 546, 546, 546, 547, 547, 547, 547, 547, 547, 548, 548, 548, 548, 548, 548, 548, 548, 548, 548, 548, 548, 548, 548, 548, 548, 548, 548, 549, 549, 549, 549, 549, 549, 550, 550, 550, 550, 550, 550, 550, 550, 550, 550, 550, 550, 550, 550, 551, 551, 551, 551, 551, 552, 552, 552, 552, 552, 552, 552, 551, 551, 551, 551, 551, 551, 551, 550, 550, 550, 550, 550, 550, 549, 549, 549, 549, 549, 549, 549, 549, 549, 549, 549, 549, 549, 549, 549, 549, 549, 549, 549, 549, 549, 549, 549, 549, 549, 549, 550, 550, 550, 551, 551, 551, 551, 551, 552, 552, 553, 553, 553, 553, 553, 553, 553, 553, 553, 553, 553, 553, 553, 552, 552, 552, 551, 551, 551, 550, 550, 549, 549, 548, 548, 548, 547, 547, 547, 547, 547, 547, 547, 547, 547, 548, 548, 548, 548, 548, 549, 549, 549, 550, 550, 550, 550, 551, 551, 551, 551, 551, 552, 552, 552, 552, 552, 552, 552, 552, 552, 552, 552, 552, 552, 552, 552, 552, 552, 552, 553, 553, 553, 553, 553, 553, 553, 553, 554, 554, 554, 554, 554, 554, 554, 554, 554, 554, 554, 554, 554, 554, 554, 554, 553, 553, 553, 553, 553, 553, 553, 553, 553, 553, 553, 553, 553, 553, 553, 553, 553, 553, 553, 553, 553, 553, 553, 553, 553, 553, 553, 553, 553, 553, 553, 553, 553, 553, 553, 553, 553, 553, 553, 553, 553, 553, 553, 553, 554, 554, 554, 554, 554, 555, 555, 555, 555, 555, 556, 556, 556, 557, 557, 557, 557, 557, 557, 557, 556, 556, 556, 556, 556, 556, 556, 556, 556, 556, 556, 556, 556, 556, 556, 557, 557, 557, 557, 557, 557, 557, 557, 558, 558, 558, 558, 558, 559, 559, 559, 559, 559, 559, 559, 559, 559, 559, 559, 559, 559, 558, 558, 558, 558, 558, 558, 558, 559, 559, 766, 766, 766, 767, 767, 767, 767, 767, 767, 767, 767, 767, 767, 767, 767, 767, 767
665, 667, 668, 668, 670, 672, 672, 674, 674, 675, 678, 678, 679, 680, 680, 681, 683, 683, 685, 689, 689, 694, 699, 699, 705, 710, 710, 716, 722, 722, 726, 730, 730, 734, 736, 736, 737, 737, 738, 740, 740, 741, 742, 742, 743, 744, 744, 744, 744, 743, 743, 742, 742, 742, 742, 742, 742, 742, 742, 742, 0, 0, 0, 0, 0, 0, 0, 0, 0, 0, 0, 0, 0, 0, 0, 0, 0, 0, 0, 540, 540, 540, 540, 540, 540, 539, 539, 539, 539, 539, 539, 539, 539, 538, 538, 538, 538, 538, 538, 538, 538, 538, 538, 538, 538, 538, 538, 538, 538, 539, 539, 539, 539, 539, 539, 539, 539, 540, 540, 540, 540, 540, 539, 539, 539, 539, 539, 539, 539, 539, 539, 539, 539, 538, 538, 538, 538, 538, 538, 538, 538, 538, 538, 538, 538, 538, 538, 538, 538, 538, 538, 538, 538, 538, 538, 539, 539, 539, 539, 539, 539, 539, 539, 539, 539, 539, 539, 539, 539, 540, 539, 539, 540, 540, 540, 540, 540, 540, 541, 541, 541, 541, 541, 541, 541, 542, 542, 542, 542, 542, 542, 542, 542, 542, 542, 542, 542, 543, 542, 542, 542, 542, 542, 542, 542, 542, 542, 542, 542, 543, 543, 543, 543, 543, 543, 543, 543, 543, 543, 543, 543, 544, 544, 544, 545, 545, 545, 545, 545, 545, 545, 546, 546, 546, 546, 546, 545, 545, 545, 545, 545, 545, 544, 544, 544, 544, 544, 544, 544, 543, 543, 543, 543, 544, 544, 544, 544, 544, 544, 544, 544, 544, 545, 545, 545, 545, 545, 545, 545, 546, 546, 546, 546, 546, 546, 547, 547, 547, 547, 547, 547, 547, 547, 547, 547, 548, 548, 548, 548, 548, 548, 548, 548, 548, 548, 548, 548, 548, 548, 549, 549, 549, 549, 549, 549, 549, 549, 549, 550, 550, 550, 550, 550, 550, 550, 550, 550, 550, 550, 551, 551, 551, 551, 551, 551, 551, 552, 552, 552, 552, 552, 551, 551, 551, 551, 551, 551, 551, 550, 550, 550, 550, 550, 550, 549, 549, 549, 549, 549, 549, 549, 549, 549, 549, 549, 549, 549, 549, 549, 549, 549, 549, 549, 549, 549, 549, 549, 549, 549, 549, 550, 550, 550, 551, 551, 551, 551, 551, 552, 552, 553, 553, 553, 553, 553, 553, 553, 553, 553, 553, 553, 553, 553, 552, 552, 552, 551, 551, 551, 550, 550, 549, 549, 548, 548, 548, 547, 547, 547, 547, 547, 547, 547, 547, 547, 548, 548, 548, 548, 548, 549, 549, 549, 550, 550, 550, 550, 550, 550, 551, 551, 551, 551, 551, 551, 551, 551, 551, 551, 551, 552, 552, 552, 552, 552, 552, 552, 552, 552, 552, 553, 553, 553, 553, 553, 553, 553, 553, 554, 554, 554, 554, 554, 554, 554, 554, 554, 554, 554, 554, 554, 554, 554, 554, 554, 554, 553, 553, 553, 553, 553, 553, 553, 553, 553, 553, 553, 553, 553, 553, 553, 553, 553, 553, 553, 553, 554, 554, 553, 553, 553, 553, 553, 553, 553, 553, 553, 553, 553, 553, 553, 553, 553, 553, 553, 553, 554, 554, 554, 554, 554, 554, 554, 555, 555, 555, 555, 555, 556, 556, 556, 556, 557, 557, 556, 556, 556, 556, 556, 555, 555, 555, 555, 555, 555, 555, 555, 555, 556, 556, 556, 556, 556, 557, 557, 557, 557, 557, 557, 557, 557, 558, 558, 558, 558, 558, 559, 559, 559, 559, 559, 559, 559, 559, 559, 559, 559, 559, 559, 558, 558, 558, 558, 558, 558, 558, 559, 559, 766, 766, 767, 767, 767, 767, 767, 767, 767, 767, 767, 767, 767, 767, 767, 767, 767
