694, 697, 700, 700, 703, 707, 707, 711, 715, 715, 720, 724, 724, 728, 731, 731, 735, 738, 738, 741, 744, 744, 746, 747, 747, 748, 748, 750, 752, 752, 753, 0, 0, 0, 0, 0, 0, 0, 0, 0, 0, 0, 0, 0, 0, 0, 0, 0, 0, 0, 0, 551, 551, 551, 551, 550, 550, 550, 550, 549, 549, 549, 549, 549, 549, 549, 549, 549, 549, 549, 549, 549, 549, 549, 549, 549, 549, 549, 549, 549, 549, 549, 550, 550, 549, 549, 549, 549, 550, 550, 550, 550, 550, 550, 550, 550, 550, 550, 550, 550, 550, 550, 550, 550, 551, 551, 551, 551, 551, 551, 552, 552, 552, 552, 552, 552, 552, 552, 552, 552, 552, 553, 553, 553, 553, 553, 554, 554, 554, 554, 554, 554, 554, 554, 554, 554, 554, 554, 554, 554, 554, 554, 554, 553, 553, 553, 553, 553, 553, 553, 552, 552, 552, 552, 552, 551, 551, 551, 551, 551, 551, 551, 551, 551, 551, 551, 551, 552, 552, 552, 552, 552, 553, 553, 553, 553, 553, 553, 553, 553, 553, 553, 553, 553, 553, 553, 553, 553, 553, 552, 552, 552, 552, 552, 552, 551, 551, 551, 552, 552, 551, 551, 551, 551, 551, 551, 551, 551, 551, 551, 552, 552, 552, 553, 553, 553, 553, 554, 554, 554, 555, 555, 555, 556, 556, 556, 556, 556, 556, 556, 556, 556, 556, 556, 556, 556, 556, 556, 556, 555, 555, 555, 555, 555, 555, 556, 555, 555, 555, 555, 555, 555, 555, 555, 555, 555, 555, 555, 555, 555, 555, 555, 555, 555, 555, 555, 555, 555, 555, 555, 555, 555, 555, 554, 554, 555, 555, 555, 554, 554, 554, 554, 555, 555, 555, 555, 555, 555, 555, 555, 556, 556, 556, 556, 556, 556, 556, 556, 556, 556, 556, 556, 556, 556, 557, 557, 557, 558, 558, 558, 558, 558, 560, 560, 560, 561, 561, 561, 561, 561, 560, 560, 560, 559, 559, 558, 558, 558, 558, 558, 557, 557, 557, 557, 557, 557, 557, 557, 557, 557, 557, 557, 557, 557, 557, 557, 556, 556, 556, 556, 557, 557, 556, 556, 556, 556, 556, 556, 556, 555, 555, 556, 556, 555, 555, 555, 555, 555, 555, 555, 555, 555, 555, 555, 555, 555, 555, 555, 555, 555, 556, 556, 556, 556, 556, 556, 556, 557, 557, 557, 557, 557, 557, 557, 557, 557, 557, 557, 557, 557, 557, 557, 557, 557, 557, 556, 556, 556, 556, 556, 556, 556, 556, 556, 556, 556, 556, 556, 556, 556, 556, 556, 556, 557, 557, 557, 557, 557, 557, 557, 557, 558, 558, 558, 558, 558, 559, 559, 559, 559, 559, 559, 559, 559, 559, 559, 559, 559, 558, 558, 558, 558, 558, 558, 558, 558, 559, 559, 560, 560, 560, 560, 560, 561, 562, 562, 562, 563, 563, 563, 563, 563, 564, 564, 564, 565, 565, 565, 565, 565, 566, 566, 566, 566, 566, 566, 566, 566, 566, 566, 565, 565, 565, 565, 565, 565, 565, 565, 565, 565, 565, 566, 566, 565, 565, 565, 566, 566, 566, 566, 566, 566, 566, 566, 566, 566, 566, 566, 566, 566, 566, 566, 565, 565, 565, 566, 566, 566, 567, 567, 567, 567, 567, 567, 568, 568, 568, 568, 568, 568, 568, 568, 568, 568, 568, 569, 569, 569, 569, 569, 777, 777, 777, 777, 778, 778, 778, 778, 778, 778, 778, 778, 779, 779, 779, 779, 779, 779, 779, 779, 779, 779, 779, 778, 778, 777, 777, 776, 776, 776, 776, 775, 775, 775, 775, 774, 774, 774, 774, 774, 774, 774, 775, 775, 775, 775, 775, 775, 775, 775, 776, 776, 776, 776, 776
694, 697, 700, 700, 703, 707, 707, 711, 715, 715, 720, 724, 724, 728, 731, 731, 735, 738, 738, 741, 744, 744, 745, 747, 747, 748, 748, 750, 752, 752, 753, 0, 0, 0, 0, 0, 0, 0, 0, 0, 0, 0, 0, 0, 0, 0, 0, 0, 0, 0, 0, 551, 551, 551, 551, 550, 550, 550, 550, 549, 549, 549, 549, 549, 549, 549, 549, 549, 549, 549, 549, 549, 549, 549, 550, 550, 550, 550, 550, 550, 550, 550, 550, 550, 550, 550, 550, 550, 550, 550, 551, 551, 551, 551, 551, 550, 550, 550, 550, 550, 550, 551, 551, 551, 551, 551, 551, 551, 551, 551, 551, 551, 551, 551, 551, 551, 551, 551, 552, 552, 552, 552, 552, 553, 553, 553, 554, 554, 554, 554, 554, 554, 554, 554, 554, 554, 554, 554, 554, 554, 554, 554, 554, 554, 553, 553, 553, 553, 553, 553, 552, 552, 552, 552, 551, 551, 551, 551, 551, 551, 551, 551, 551, 551, 551, 551, 551, 552, 552, 552, 552, 552, 553, 553, 553, 553, 553, 553, 553, 553, 553, 553, 553, 553, 553, 553, 553, 553, 553, 552, 552, 552, 552, 552, 552, 551, 551, 551, 552, 552, 552, 551, 551, 551, 551, 551, 551, 551, 551, 551, 552, 552, 552, 553, 553, 553, 553, 554, 554, 554, 555, 555, 555, 556, 556, 556, 556, 556, 556, 556, 556, 556, 556, 556, 556, 556, 556, 556, 556, 556, 556, 556, 556, 556, 556, 556, 556, 555, 555, 555, 555, 555, 555, 555, 555, 555, 555, 555, 555, 555, 555, 555, 555, 555, 555, 555, 555, 555, 555, 555, 555, 555, 555, 554, 554, 555, 555, 555, 555, 555, 555, 555, 555, 555, 555, 555, 555, 555, 555, 555, 556, 556, 556, 556, 556, 556, 556, 556, 556, 556, 556, 556, 556, 556, 557, 557, 557, 557, 557, 558, 558, 558, 560, 560, 560, 561, 561, 561, 561, 561, 560, 560, 560, 559, 559, 558, 558, 558, 558, 558, 557, 557, 557, 557, 557, 556, 556, 557, 557, 557, 557, 557, 557, 557, 557, 557, 556, 556, 556, 556, 556, 556, 556, 556, 556, 556, 556, 555, 555, 555, 555, 555, 555, 555, 555, 555, 555, 555, 555, 555, 555, 555, 555, 555, 555, 555, 555, 555, 555, 555, 556, 556, 556, 556, 556, 556, 556, 557, 557, 557, 557, 557, 557, 557, 557, 557, 557, 557, 557, 557, 557, 557, 557, 557, 557, 556, 556, 556, 556, 556, 556, 556, 556, 556, 556, 556, 556, 556, 556, 556, 556, 556, 556, 557, 557, 557, 557, 557, 557, 557, 557, 558, 558, 558, 558, 558, 559, 559, 559, 559, 559, 559, 559, 559, 559, 559, 559, 559, 558, 558, 558, 558, 558, 558, 558, 559, 559, 559, 560, 560, 560, 560, 560, 561, 562, 562, 562, 563, 563, 563, 563, 563, 564, 564, 564, 564, 564, 565, 565, 565, 565, 565, 566, 566, 565, 565, 565, 565, 566, 566, 565, 565, 565, 565, 565, 565, 565, 565, 565, 566, 566, 566, 566, 566, 566, 566, 566, 566, 566, 566, 566, 566, 566, 566, 566, 566, 566, 566, 566, 566, 566, 566, 566, 566, 566, 566, 567, 567, 567, 568, 568, 568, 568, 568, 568, 568, 568, 568, 568, 569, 568, 568, 568, 568, 568, 569, 569, 569, 569, 569, 777, 777, 777, 777, 778, 778, 778, 778, 779, 779, 779, 779, 779, 779, 779, 779, 779, 779, 779, 779, 779, 779, 779, 779, 779, 778, 778, 777, 777, 777, 776, 776, 776, 775, 775, 775, 774, 774, 774, 774, 774, 774, 775, 775, 775, 775, 775, 775, 775, 775, 776, 776, 776, 776, 776
694, 697, 700, 700, 704, 707, 707, 711, 715, 715, 720, 724, 724, 728, 732, 732, 735, 738, 738, 741, 744, 744, 745, 748, 748, 749, 749, 750, 753, 753, 753, 0, 0, 0, 0, 0, 0, 0, 0, 0, 0, 0, 0, 0, 0, 0, 0, 0, 0, 0, 0, 551, 551, 551, 551, 550, 550, 550, 550, 550, 549, 549, 549, 549, 549, 549, 549, 549, 549, 549, 549, 549, 550, 550, 550, 550, 550, 550, 550, 550, 550, 550, 551, 551, 551, 551, 551, 551, 551, 551, 551, 552, 552, 551, 551, 551, 551, 551, 551, 551, 551, 551, 551, 551, 551, 551, 551, 551, 551, 551, 551, 551, 551, 551, 551, 551, 551, 551, 552, 552, 552, 552, 552, 553, 553, 553, 554, 554, 554, 554, 554, 554, 554, 554, 554, 554, 554, 554, 554, 554, 554, 554, 554, 554, 553, 553, 553, 553, 553, 553, 552, 552, 552, 552, 551, 551, 551, 551, 551, 551, 551, 551, 551, 551, 551, 551, 551, 552, 552, 552, 552, 552, 552, 552, 553, 553, 553, 553, 553, 553, 553, 553, 553, 553, 553, 553, 553, 553, 553, 552, 552, 552, 552, 551, 551, 551, 551, 551, 551, 551, 551, 551, 551, 551, 551, 551, 551, 551, 551, 551, 552, 552, 552, 553, 553, 553, 553, 554, 554, 554, 555, 555, 555, 556, 556, 556, 556, 556, 556, 556, 556, 556, 556, 556, 556, 556, 556, 556, 556, 556, 556, 556, 556, 556, 556, 556, 556, 555, 555, 555, 555, 555, 555, 555, 555, 555, 555, 555, 555, 555, 555, 555, 555, 555, 555, 555, 555, 555, 555, 555, 555, 554, 554, 554, 554, 554, 554, 555, 555, 555, 555, 555, 555, 555, 555, 555, 556, 556, 556, 556, 556, 556, 556, 556, 556, 556, 556, 556, 556, 556, 556, 556, 556, 556, 557, 557, 557, 557, 557, 558, 559, 559, 560, 560, 560, 561, 561, 561, 561, 561, 561, 561, 560, 560, 560, 558, 558, 558, 558, 558, 557, 557, 557, 557, 557, 556, 556, 556, 556, 557, 557, 557, 557, 557, 557, 557, 556, 556, 556, 556, 556, 556, 556, 556, 556, 555, 555, 555, 555, 555, 555, 555, 555, 555, 555, 555, 555, 555, 555, 555, 555, 555, 555, 555, 555, 555, 555, 555, 555, 555, 556, 556, 556, 556, 556, 556, 556, 557, 557, 557, 557, 557, 557, 557, 557, 557, 557, 557, 557, 557, 557, 557, 557, 557, 557, 557, 556, 556, 556, 556, 556, 556, 556, 556, 556, 556, 556, 556, 556, 556, 556, 556, 556, 557, 557, 557, 557, 557, 557, 557, 557, 558, 558, 558, 558, 558, 560, 560, 560, 560, 559, 559, 559, 559, 560, 560, 559, 559, 559, 558, 558, 558, 558, 558, 558, 559, 559, 559, 560, 560, 560, 561, 561, 561, 562, 562, 562, 563, 563, 563, 563, 564, 564, 564, 564, 564, 564, 565, 565, 565, 565, 565, 566, 566, 565, 565, 565, 565, 566, 566, 565, 565, 565, 565, 565, 565, 565, 565, 565, 566, 566, 566, 566, 566, 566, 566, 566, 566, 566, 566, 566, 566, 566, 566, 566, 566, 566, 566, 566, 566, 566, 566, 566, 566, 566, 566, 567, 567, 567, 568, 568, 568, 568, 568, 568, 568, 568, 568, 568, 569, 568, 568, 568, 568, 568, 569, 569, 569, 569, 569, 777, 777, 777, 777, 778, 778, 778, 778, 779, 779, 779, 779, 779, 779, 779, 779, 779, 779, 779, 779, 779, 779, 779, 779, 779, 778, 778, 777, 777, 777, 776, 776, 776, 775, 775, 775, 774, 774, 774, 774, 774, 774, 774, 774, 774, 774, 774, 774, 775, 775, 775, 775, 775, 775, 775
695, 697, 701, 701, 704, 708, 708, 712, 716, 716, 720, 724, 724, 728, 732, 732, 735, 739, 739, 741, 744, 744, 746, 748, 748, 749, 749, 751, 753, 753, 753, 0, 0, 0, 0, 0, 0, 0, 0, 0, 0, 0, 0, 0, 0, 0, 0, 0, 0, 0, 0, 551, 551, 551, 551, 550, 550, 550, 550, 550, 549, 549, 549, 549, 549, 549, 549, 549, 549, 549, 549, 549, 550, 550, 550, 550, 550, 550, 550, 550, 550, 550, 551, 551, 551, 551, 551, 551, 551, 551, 551, 552, 552, 551, 551, 551, 551, 551, 551, 551, 551, 551, 551, 551, 551, 551, 551, 551, 551, 551, 551, 551, 551, 551, 551, 551, 551, 551, 552, 552, 552, 552, 552, 552, 553, 553, 553, 553, 554, 554, 554, 554, 554, 554, 554, 554, 554, 554, 554, 554, 554, 554, 554, 554, 553, 553, 553, 553, 553, 553, 552, 552, 552, 552, 551, 551, 551, 551, 551, 551, 551, 551, 551, 551, 551, 551, 551, 551, 551, 552, 552, 552, 552, 552, 552, 553, 553, 553, 553, 553, 554, 554, 554, 554, 553, 553, 553, 553, 553, 552, 552, 552, 552, 551, 551, 551, 551, 551, 551, 551, 551, 551, 551, 551, 551, 551, 551, 551, 551, 551, 552, 552, 552, 553, 553, 554, 554, 554, 554, 554, 555, 556, 556, 556, 556, 556, 556, 556, 556, 556, 556, 556, 556, 556, 556, 556, 556, 556, 556, 556, 556, 556, 556, 556, 556, 556, 556, 555, 555, 555, 555, 556, 555, 555, 555, 555, 555, 555, 555, 555, 555, 555, 555, 555, 555, 555, 555, 555, 555, 555, 555, 554, 554, 554, 554, 554, 554, 555, 555, 555, 555, 555, 555, 555, 555, 556, 556, 556, 556, 556, 556, 557, 557, 557, 557, 557, 556, 556, 556, 556, 556, 556, 556, 556, 557, 557, 557, 557, 557, 558, 559, 559, 560, 560, 560, 561, 561, 561, 561, 561, 561, 561, 560, 560, 560, 559, 559, 558, 558, 558, 557, 557, 557, 557, 557, 556, 556, 556, 556, 557, 557, 557, 557, 557, 557, 557, 556, 556, 556, 556, 556, 556, 556, 556, 556, 555, 555, 555, 555, 555, 555, 555, 555, 555, 555, 555, 555, 555, 555, 555, 555, 555, 555, 555, 555, 555, 555, 555, 555, 555, 556, 556, 556, 556, 556, 556, 556, 557, 557, 557, 557, 557, 557, 557, 557, 557, 557, 557, 557, 557, 557, 557, 557, 557, 557, 557, 556, 556, 556, 556, 556, 556, 556, 556, 556, 556, 556, 556, 556, 556, 556, 556, 556, 557, 557, 557, 557, 557, 557, 557, 557, 558, 558, 558, 558, 558, 560, 560, 560, 560, 559, 559, 559, 559, 560, 560, 559, 559, 559, 558, 558, 558, 558, 558, 558, 559, 559, 559, 560, 560, 560, 561, 561, 561, 562, 562, 562, 563, 563, 563, 563, 563, 563, 563, 564, 564, 564, 564, 564, 565, 565, 565, 566, 566, 565, 565, 565, 565, 566, 566, 565, 565, 565, 565, 565, 565, 565, 565, 565, 566, 566, 566, 566, 566, 566, 566, 566, 566, 566, 566, 566, 566, 566, 566, 566, 566, 566, 566, 566, 566, 566, 566, 566, 566, 566, 567, 567, 567, 568, 568, 568, 568, 568, 569, 569, 569, 569, 569, 569, 569, 569, 568, 568, 568, 568, 569, 569, 569, 777, 777, 777, 777, 777, 777, 778, 778, 778, 778, 779, 779, 779, 779, 780, 780, 780, 780, 780, 780, 780, 779, 779, 779, 779, 779, 779, 778, 778, 777, 777, 777, 776, 776, 776, 775, 775, 775, 774, 774, 774, 774, 774, 774, 774, 774, 774, 774, 774, 774, 775, 775, 775, 775, 775, 775, 775
695, 697, 701, 701, 704, 708, 708, 712, 716, 716, 720, 724, 724, 728, 732, 732, 735, 739, 739, 741, 744, 744, 746, 748, 748, 749, 749, 751, 753, 753, 754, 0, 0, 0, 0, 0, 0, 0, 0, 0, 0, 0, 0, 0, 0, 0, 0, 0, 0, 0, 0, 551, 550, 550, 550, 550, 550, 549, 549, 549, 549, 549, 549, 549, 549, 549, 549, 549, 549, 550, 550, 550, 550, 550, 550, 550, 550, 551, 551, 551, 551, 551, 551, 552, 552, 552, 552, 552, 552, 552, 552, 552, 552, 552, 552, 552, 552, 551, 551, 551, 551, 551, 551, 551, 551, 551, 551, 551, 551, 551, 551, 551, 551, 551, 551, 551, 551, 551, 551, 551, 552, 552, 552, 552, 553, 553, 553, 553, 554, 554, 554, 554, 554, 554, 554, 554, 554, 554, 554, 554, 554, 554, 554, 554, 553, 553, 553, 553, 553, 553, 552, 552, 552, 552, 551, 551, 551, 551, 551, 551, 551, 551, 551, 551, 551, 551, 551, 551, 551, 552, 552, 552, 552, 552, 552, 553, 553, 553, 553, 553, 554, 554, 554, 554, 554, 553, 553, 553, 553, 553, 552, 552, 552, 552, 552, 551, 551, 551, 551, 552, 552, 552, 552, 551, 551, 552, 551, 551, 551, 552, 552, 552, 553, 553, 553, 554, 554, 554, 555, 555, 555, 556, 556, 556, 556, 556, 556, 556, 556, 556, 556, 556, 556, 556, 556, 556, 556, 556, 556, 556, 556, 556, 556, 556, 556, 556, 556, 555, 555, 555, 555, 556, 555, 555, 555, 555, 555, 555, 555, 555, 555, 555, 555, 555, 555, 555, 555, 555, 555, 555, 554, 554, 554, 554, 554, 554, 554, 555, 555, 555, 555, 555, 555, 555, 555, 556, 556, 556, 556, 556, 556, 557, 557, 557, 557, 557, 556, 556, 556, 556, 556, 556, 556, 556, 557, 557, 557, 557, 557, 558, 559, 559, 559, 560, 560, 561, 561, 561, 561, 561, 561, 561, 560, 559, 559, 559, 559, 558, 558, 558, 557, 557, 557, 556, 556, 556, 556, 556, 556, 556, 556, 556, 556, 556, 556, 556, 556, 556, 556, 556, 556, 556, 556, 556, 556, 555, 555, 555, 555, 555, 555, 555, 555, 555, 555, 555, 555, 555, 555, 555, 555, 555, 555, 555, 555, 555, 555, 555, 555, 555, 556, 556, 556, 556, 556, 556, 556, 557, 557, 557, 557, 557, 557, 557, 557, 557, 557, 557, 557, 557, 557, 557, 557, 556, 556, 556, 556, 556, 556, 556, 556, 556, 556, 556, 556, 556, 556, 556, 556, 556, 556, 556, 556, 556, 556, 557, 557, 557, 557, 557, 557, 558, 558, 558, 559, 559, 560, 560, 560, 560, 559, 559, 560, 560, 560, 560, 559, 559, 559, 559, 559, 558, 558, 558, 558, 559, 559, 559, 560, 560, 560, 561, 561, 561, 562, 562, 562, 563, 563, 563, 563, 563, 563, 563, 564, 564, 564, 564, 564, 565, 565, 565, 566, 566, 566, 566, 566, 566, 566, 566, 566, 566, 566, 566, 566, 566, 566, 566, 566, 566, 566, 566, 566, 566, 566, 566, 566, 566, 566, 566, 566, 566, 566, 566, 566, 566, 566, 566, 566, 566, 566, 566, 566, 567, 567, 567, 568, 568, 568, 569, 569, 569, 569, 569, 569, 569, 569, 569, 569, 569, 569, 569, 569, 569, 569, 569, 569, 569, 777, 777, 777, 777, 778, 778, 778, 778, 778, 779, 779, 779, 780, 780, 780, 780, 780, 780, 780, 780, 780, 780, 779, 779, 779, 779, 779, 778, 778, 777, 777, 777, 776, 776, 776, 775, 775, 774, 774, 774, 774, 774, 774, 774, 774, 774, 774, 774, 774, 774, 774, 774, 774, 774, 774, 774, 774
695, 697, 701, 701, 705, 709, 709, 712, 716, 716, 720, 724, 724, 729, 732, 732, 736, 739, 739, 742, 744, 744, 746, 748, 748, 750, 750, 752, 753, 753, 754, 0, 0, 0, 0, 0, 0, 0, 0, 0, 0, 0, 0, 0, 0, 0, 0, 0, 0, 0, 0, 551, 550, 550, 550, 550, 550, 549, 549, 549, 549, 549, 549, 549, 549, 549, 550, 550, 550, 550, 550, 550, 550, 550, 551, 551, 551, 551, 551, 551, 552, 552, 552, 552, 552, 552, 552, 552, 552, 552, 553, 553, 553, 552, 552, 552, 552, 552, 551, 551, 551, 551, 551, 551, 551, 551, 551, 551, 551, 551, 551, 551, 551, 551, 551, 551, 551, 551, 551, 551, 552, 552, 552, 552, 553, 553, 553, 553, 553, 554, 554, 554, 554, 554, 554, 554, 554, 554, 554, 554, 554, 553, 553, 553, 553, 553, 553, 553, 553, 553, 552, 552, 552, 552, 551, 551, 551, 551, 551, 551, 551, 551, 551, 551, 551, 551, 551, 551, 551, 552, 551, 551, 552, 552, 552, 553, 553, 553, 553, 553, 554, 554, 554, 554, 554, 553, 553, 553, 553, 553, 552, 552, 552, 552, 552, 551, 551, 551, 551, 552, 552, 552, 552, 551, 551, 552, 551, 551, 551, 552, 552, 552, 553, 553, 553, 554, 554, 554, 555, 555, 555, 556, 556, 556, 556, 556, 556, 556, 556, 556, 556, 556, 556, 556, 556, 556, 556, 556, 556, 556, 556, 556, 556, 556, 556, 556, 555, 555, 555, 555, 555, 556, 555, 555, 555, 555, 555, 555, 555, 555, 555, 555, 555, 555, 555, 555, 555, 555, 554, 554, 554, 554, 554, 554, 554, 554, 554, 555, 555, 555, 555, 555, 555, 556, 556, 556, 556, 556, 556, 556, 557, 557, 557, 557, 557, 557, 557, 557, 556, 556, 556, 556, 556, 556, 557, 557, 557, 557, 557, 558, 558, 558, 559, 560, 560, 560, 561, 561, 561, 561, 560, 560, 560, 559, 559, 558, 558, 558, 557, 557, 557, 557, 557, 556, 556, 556, 556, 556, 556, 556, 556, 556, 556, 556, 556, 556, 556, 556, 556, 556, 556, 556, 556, 556, 556, 555, 555, 555, 555, 555, 555, 555, 555, 555, 555, 555, 555, 555, 555, 555, 555, 555, 555, 555, 555, 555, 555, 555, 555, 556, 556, 556, 556, 556, 556, 556, 556, 557, 557, 557, 557, 557, 557, 557, 557, 557, 557, 557, 557, 557, 557, 557, 557, 556, 556, 556, 556, 556, 556, 556, 556, 556, 556, 556, 556, 556, 556, 556, 556, 556, 556, 556, 556, 556, 556, 557, 557, 557, 557, 557, 557, 558, 558, 558, 559, 559, 560, 560, 560, 560, 560, 560, 560, 560, 560, 560, 560, 560, 560, 559, 559, 559, 559, 559, 559, 559, 560, 560, 560, 560, 560, 561, 561, 561, 562, 562, 562, 562, 562, 563, 563, 563, 563, 563, 564, 564, 564, 564, 564, 565, 565, 565, 566, 566, 566, 566, 566, 566, 566, 566, 566, 566, 566, 566, 566, 566, 566, 566, 566, 566, 566, 566, 566, 566, 566, 566, 566, 566, 566, 566, 566, 566, 566, 566, 566, 566, 566, 566, 566, 566, 566, 566, 566, 567, 567, 567, 568, 568, 568, 569, 569, 569, 569, 569, 569, 569, 569, 569, 569, 569, 569, 569, 569, 569, 569, 569, 569, 569, 777, 777, 777, 777, 778, 778, 778, 778, 778, 779, 779, 779, 780, 780, 780, 780, 780, 780, 780, 780, 780, 780, 779, 779, 779, 779, 779, 778, 778, 777, 776, 776, 776, 776, 776, 775, 775, 774, 774, 774, 774, 774, 774, 774, 774, 774, 774, 774, 774, 774, 774, 774, 774, 774, 774, 774, 774
695, 697, 701, 701, 705, 709, 709, 712, 716, 716, 720, 724, 724, 729, 732, 732, 736, 739, 739, 742, 744, 744, 746, 748, 748, 750, 750, 752, 753, 753, 754, 0, 0, 0, 0, 0, 0, 0, 0, 0, 0, 0, 0, 0, 0, 0, 0, 0, 0, 0, 0, 550, 550, 550, 550, 550, 550, 549, 549, 549, 549, 549, 549, 549, 549, 549, 550, 550, 550, 550, 550, 550, 550, 550, 551, 551, 551, 551, 551, 551, 552, 552, 552, 552, 552, 552, 552, 552, 552, 552, 553, 553, 553, 552, 552, 552, 552, 552, 551, 551, 551, 551, 551, 551, 551, 551, 551, 551, 551, 551, 551, 551, 551, 551, 551, 551, 551, 551, 551, 551, 552, 552, 552, 552, 552, 552, 553, 553, 553, 553, 553, 553, 553, 553, 553, 553, 553, 553, 553, 553, 553, 553, 553, 553, 553, 553, 553, 553, 553, 553, 552, 552, 552, 552, 551, 551, 551, 551, 551, 551, 551, 551, 550, 550, 550, 550, 551, 551, 551, 551, 551, 551, 552, 552, 552, 553, 553, 553, 554, 554, 554, 554, 554, 554, 554, 554, 554, 553, 553, 553, 553, 553, 552, 552, 552, 552, 552, 552, 552, 552, 552, 552, 552, 552, 552, 552, 552, 552, 552, 552, 552, 552, 553, 554, 554, 554, 554, 554, 555, 555, 555, 556, 556, 556, 556, 556, 556, 556, 556, 556, 556, 556, 556, 556, 556, 556, 556, 556, 556, 556, 556, 556, 556, 556, 556, 556, 555, 555, 555, 555, 555, 556, 556, 556, 555, 555, 555, 555, 555, 555, 555, 555, 555, 555, 555, 555, 555, 555, 554, 554, 554, 554, 554, 554, 554, 554, 554, 555, 555, 555, 555, 555, 555, 556, 556, 556, 557, 557, 557, 557, 557, 557, 557, 557, 557, 557, 557, 557, 557, 557, 556, 556, 556, 556, 557, 557, 557, 557, 557, 558, 558, 558, 559, 560, 560, 560, 561, 561, 561, 561, 560, 560, 560, 559, 559, 558, 558, 558, 557, 557, 557, 557, 557, 556, 556, 556, 556, 556, 556, 556, 556, 556, 556, 556, 556, 556, 556, 556, 556, 556, 556, 556, 556, 556, 555, 555, 555, 555, 555, 555, 555, 555, 555, 555, 555, 555, 555, 555, 555, 555, 555, 555, 555, 555, 555, 555, 555, 555, 555, 556, 556, 556, 556, 556, 556, 556, 556, 557, 557, 557, 557, 557, 557, 557, 557, 557, 557, 557, 557, 557, 557, 557, 557, 556, 556, 556, 556, 556, 556, 556, 556, 556, 556, 556, 556, 556, 556, 555, 555, 555, 555, 555, 556, 556, 556, 557, 557, 557, 557, 557, 557, 558, 558, 558, 559, 559, 560, 560, 560, 560, 560, 560, 560, 560, 560, 560, 560, 560, 560, 559, 559, 559, 559, 559, 559, 559, 560, 560, 560, 560, 560, 561, 561, 561, 562, 562, 562, 562, 562, 563, 563, 563, 564, 564, 564, 564, 564, 565, 565, 565, 565, 565, 566, 566, 566, 566, 566, 566, 566, 566, 566, 566, 566, 566, 566, 566, 566, 566, 566, 566, 566, 566, 566, 566, 566, 566, 566, 566, 566, 566, 566, 566, 566, 566, 566, 566, 566, 566, 566, 566, 567, 567, 567, 567, 567, 568, 568, 568, 569, 569, 569, 570, 570, 570, 570, 570, 570, 570, 570, 569, 569, 569, 569, 569, 569, 569, 569, 569, 777, 777, 777, 778, 778, 778, 778, 779, 779, 779, 780, 780, 780, 780, 780, 780, 780, 780, 780, 780, 780, 780, 779, 779, 779, 779, 779, 778, 778, 777, 776, 776, 776, 776, 776, 775, 775, 774, 774, 774, 774, 774, 774, 774, 774, 774, 774, 774, 774, 774, 774, 774, 774, 774, 774, 774, 774
698, 698, 701, 701, 705, 709, 709, 713, 717, 717, 722, 725, 725, 729, 733, 733, 736, 739, 739, 742, 744, 744, 747, 748, 748, 751, 753, 753, 754, 754, 755, 0, 0, 0, 0, 0, 0, 0, 0, 0, 0, 0, 0, 0, 0, 0, 0, 0, 0, 0, 0, 550, 550, 550, 550, 550, 550, 549, 549, 549, 549, 549, 549, 549, 550, 550, 550, 550, 550, 550, 550, 550, 550, 550, 551, 551, 551, 551, 552, 552, 552, 552, 552, 553, 553, 553, 553, 553, 553, 553, 553, 553, 553, 553, 553, 552, 552, 552, 552, 552, 552, 551, 551, 551, 551, 551, 551, 551, 551, 551, 551, 551, 551, 551, 551, 551, 551, 551, 551, 551, 552, 552, 552, 552, 552, 552, 553, 553, 553, 553, 553, 553, 553, 553, 553, 553, 553, 553, 553, 553, 553, 553, 553, 553, 553, 553, 553, 553, 553, 553, 552, 552, 552, 552, 551, 551, 551, 551, 551, 551, 551, 551, 550, 550, 550, 550, 551, 551, 551, 551, 551, 551, 552, 552, 552, 553, 553, 553, 554, 554, 554, 554, 554, 554, 554, 554, 554, 554, 554, 553, 553, 553, 552, 552, 552, 552, 552, 552, 552, 552, 552, 552, 552, 552, 552, 552, 552, 552, 552, 552, 552, 552, 553, 554, 554, 554, 554, 554, 555, 555, 555, 556, 556, 556, 556, 556, 556, 556, 556, 556, 556, 556, 556, 556, 556, 556, 556, 556, 556, 556, 556, 556, 556, 556, 556, 556, 555, 555, 555, 555, 555, 556, 556, 556, 555, 555, 555, 555, 555, 555, 555, 555, 555, 555, 555, 555, 554, 554, 554, 554, 554, 554, 554, 554, 554, 554, 554, 555, 555, 555, 555, 555, 555, 556, 556, 556, 557, 557, 557, 557, 557, 557, 557, 557, 557, 557, 557, 557, 557, 557, 556, 556, 556, 556, 557, 557, 557, 557, 557, 557, 558, 558, 558, 559, 559, 560, 560, 560, 560, 560, 560, 560, 560, 559, 559, 558, 558, 558, 557, 557, 557, 556, 556, 556, 556, 556, 556, 556, 556, 556, 556, 556, 556, 556, 556, 556, 556, 556, 556, 556, 556, 556, 555, 555, 555, 555, 555, 555, 555, 555, 555, 555, 555, 555, 555, 555, 555, 555, 555, 555, 555, 555, 555, 555, 555, 556, 556, 556, 556, 556, 556, 556, 556, 556, 556, 557, 557, 557, 557, 557, 557, 557, 557, 557, 557, 557, 557, 557, 557, 557, 557, 557, 557, 557, 557, 556, 556, 557, 556, 556, 556, 556, 556, 556, 556, 556, 556, 555, 555, 555, 555, 555, 556, 556, 556, 557, 557, 557, 557, 558, 558, 558, 558, 559, 560, 560, 560, 560, 560, 560, 560, 560, 560, 560, 560, 560, 560, 560, 560, 560, 560, 560, 560, 560, 560, 560, 560, 560, 560, 560, 560, 561, 561, 561, 562, 562, 562, 563, 563, 563, 563, 563, 564, 564, 564, 564, 564, 565, 565, 565, 566, 566, 566, 566, 566, 567, 567, 567, 567, 567, 567, 567, 567, 567, 567, 567, 567, 567, 566, 566, 566, 566, 566, 566, 566, 566, 566, 566, 566, 566, 566, 566, 566, 566, 566, 567, 566, 566, 567, 567, 567, 567, 567, 568, 568, 568, 569, 569, 569, 569, 569, 570, 570, 570, 571, 571, 570, 570, 570, 569, 569, 569, 569, 569, 569, 569, 569, 569, 777, 777, 777, 778, 778, 778, 778, 779, 779, 779, 780, 780, 780, 780, 780, 780, 780, 780, 780, 780, 780, 780, 779, 779, 779, 779, 779, 778, 778, 777, 776, 776, 776, 776, 776, 775, 775, 774, 774, 774, 774, 774, 774, 774, 774, 774, 774, 774, 774, 774, 774, 774, 774, 774, 773, 773, 773
699, 699, 703, 703, 706, 709, 709, 714, 718, 718, 722, 726, 726, 730, 733, 733, 737, 740, 740, 743, 745, 745, 747, 750, 750, 751, 753, 753, 754, 754, 755, 0, 0, 0, 0, 0, 0, 0, 0, 0, 0, 0, 0, 0, 0, 0, 0, 0, 0, 0, 0, 550, 550, 550, 550, 550, 550, 549, 549, 549, 549, 549, 549, 550, 550, 550, 550, 550, 550, 550, 550, 551, 551, 551, 551, 551, 551, 552, 552, 552, 552, 552, 553, 553, 553, 553, 553, 553, 553, 553, 553, 553, 553, 553, 553, 552, 552, 552, 552, 552, 552, 551, 551, 551, 551, 551, 551, 551, 551, 551, 551, 551, 551, 551, 551, 551, 551, 551, 551, 551, 551, 552, 552, 552, 552, 552, 553, 553, 553, 553, 553, 553, 553, 553, 553, 553, 553, 553, 553, 553, 553, 553, 553, 553, 553, 553, 552, 552, 552, 552, 552, 552, 552, 552, 551, 551, 551, 551, 551, 551, 551, 551, 550, 550, 550, 550, 551, 551, 551, 551, 551, 551, 552, 552, 552, 553, 553, 553, 554, 554, 554, 554, 554, 554, 554, 554, 554, 554, 554, 553, 553, 553, 552, 552, 552, 552, 552, 552, 552, 552, 552, 552, 552, 552, 552, 552, 552, 552, 552, 552, 553, 553, 553, 554, 554, 554, 554, 554, 555, 555, 555, 556, 556, 556, 557, 556, 556, 556, 556, 556, 556, 556, 556, 556, 556, 556, 556, 556, 556, 556, 556, 556, 556, 556, 556, 556, 556, 556, 556, 556, 556, 556, 556, 556, 556, 556, 556, 555, 555, 555, 555, 555, 555, 555, 555, 555, 554, 554, 554, 555, 554, 554, 555, 555, 555, 555, 555, 555, 555, 555, 555, 555, 556, 556, 556, 556, 557, 557, 557, 557, 557, 557, 557, 557, 557, 557, 557, 557, 557, 557, 556, 556, 556, 556, 557, 557, 557, 557, 557, 557, 558, 558, 558, 559, 559, 560, 560, 560, 560, 560, 560, 560, 560, 559, 559, 558, 558, 558, 557, 557, 557, 556, 556, 556, 556, 556, 556, 556, 556, 556, 556, 556, 556, 556, 556, 556, 556, 556, 556, 556, 556, 556, 555, 555, 555, 555, 555, 555, 555, 555, 555, 555, 555, 555, 555, 555, 555, 555, 555, 555, 555, 556, 556, 556, 556, 556, 556, 556, 556, 556, 556, 556, 556, 557, 557, 557, 557, 557, 557, 557, 557, 557, 557, 557, 557, 557, 557, 557, 557, 557, 557, 557, 557, 557, 557, 556, 556, 557, 557, 556, 556, 556, 556, 556, 556, 556, 556, 556, 556, 555, 555, 555, 556, 556, 556, 556, 557, 557, 557, 557, 557, 558, 558, 559, 560, 560, 560, 560, 560, 560, 560, 560, 560, 560, 560, 560, 560, 560, 560, 560, 560, 560, 560, 560, 560, 560, 560, 560, 560, 560, 560, 561, 561, 561, 562, 562, 562, 563, 563, 563, 563, 563, 564, 564, 564, 564, 564, 565, 565, 565, 566, 566, 566, 566, 566, 567, 567, 567, 567, 567, 567, 567, 567, 567, 567, 567, 567, 567, 566, 566, 566, 566, 566, 566, 566, 566, 566, 566, 566, 566, 566, 566, 566, 566, 566, 567, 566, 566, 567, 567, 567, 567, 567, 568, 568, 568, 569, 569, 569, 569, 569, 570, 570, 570, 571, 571, 570, 570, 570, 569, 569, 569, 569, 569, 569, 569, 569, 569, 777, 777, 777, 778, 778, 778, 779, 779, 779, 779, 780, 780, 780, 780, 780, 781, 781, 780, 780, 780, 780, 780, 779, 779, 779, 778, 778, 778, 778, 777, 776, 776, 776, 776, 776, 775, 775, 774, 774, 774, 774, 773, 773, 773, 773, 773, 773, 773, 773, 773, 773, 773, 773, 773, 773, 773, 773
699, 699, 703, 703, 706, 709, 709, 714, 718, 718, 722, 726, 726, 730, 733, 733, 737, 740, 740, 743, 745, 745, 747, 750, 750, 751, 753, 753, 754, 754, 755, 0, 0, 0, 0, 0, 0, 0, 0, 0, 0, 0, 0, 0, 0, 0, 0, 0, 0, 0, 0, 550, 550, 550, 550, 550, 550, 549, 549, 549, 549, 549, 549, 550, 550, 550, 550, 550, 550, 550, 550, 550, 551, 551, 551, 551, 551, 551, 552, 552, 552, 552, 553, 553, 553, 553, 553, 553, 553, 553, 553, 553, 553, 553, 553, 553, 553, 552, 552, 552, 552, 552, 552, 552, 551, 551, 551, 551, 551, 551, 551, 551, 551, 551, 551, 551, 551, 551, 551, 551, 551, 552, 552, 552, 552, 552, 552, 552, 552, 552, 552, 553, 553, 553, 553, 553, 553, 553, 553, 553, 553, 552, 552, 552, 552, 552, 552, 552, 552, 552, 552, 552, 552, 552, 552, 552, 552, 551, 551, 551, 551, 551, 551, 551, 551, 551, 551, 551, 551, 552, 552, 552, 552, 552, 552, 553, 553, 554, 554, 554, 554, 554, 554, 554, 554, 554, 554, 554, 554, 554, 553, 553, 553, 552, 552, 552, 552, 552, 552, 552, 552, 552, 552, 552, 552, 553, 553, 553, 553, 553, 553, 553, 554, 554, 554, 554, 554, 555, 555, 555, 555, 556, 556, 556, 557, 557, 557, 556, 556, 556, 556, 556, 556, 556, 556, 556, 556, 556, 556, 556, 556, 556, 556, 556, 556, 556, 556, 556, 556, 556, 556, 556, 556, 556, 556, 556, 556, 555, 555, 555, 555, 555, 555, 555, 555, 555, 555, 555, 555, 555, 555, 555, 555, 555, 555, 555, 555, 555, 555, 555, 556, 556, 556, 556, 556, 557, 557, 557, 557, 557, 557, 558, 558, 557, 557, 557, 557, 557, 557, 557, 556, 556, 556, 556, 556, 557, 557, 557, 557, 557, 557, 557, 558, 559, 559, 560, 560, 560, 560, 560, 560, 560, 559, 558, 558, 558, 558, 557, 557, 557, 557, 556, 556, 556, 556, 556, 556, 556, 556, 556, 556, 556, 556, 556, 556, 556, 556, 556, 556, 556, 556, 556, 555, 555, 555, 555, 555, 555, 555, 555, 555, 555, 555, 555, 555, 555, 555, 555, 555, 555, 555, 556, 556, 556, 556, 556, 556, 556, 556, 556, 556, 556, 556, 557, 557, 557, 557, 557, 557, 557, 557, 557, 557, 557, 557, 557, 557, 557, 557, 557, 557, 557, 557, 557, 557, 556, 556, 557, 557, 556, 556, 556, 556, 556, 556, 556, 556, 555, 555, 555, 555, 555, 556, 556, 556, 556, 557, 557, 557, 557, 557, 558, 558, 559, 560, 560, 560, 560, 560, 560, 561, 561, 561, 561, 561, 561, 561, 561, 561, 560, 560, 560, 560, 560, 560, 560, 560, 560, 561, 561, 561, 561, 561, 562, 562, 562, 562, 563, 563, 563, 563, 564, 564, 564, 564, 565, 565, 565, 565, 565, 566, 566, 566, 566, 566, 567, 567, 567, 567, 567, 567, 567, 567, 567, 567, 567, 567, 567, 567, 567, 567, 566, 566, 566, 566, 566, 566, 566, 566, 566, 566, 566, 567, 567, 567, 567, 567, 567, 567, 567, 567, 567, 567, 568, 568, 568, 569, 569, 569, 569, 569, 570, 570, 570, 571, 571, 570, 570, 570, 570, 570, 569, 569, 569, 569, 569, 569, 569, 778, 778, 778, 778, 779, 779, 779, 779, 779, 779, 780, 780, 780, 780, 780, 781, 781, 780, 780, 780, 780, 780, 779, 779, 779, 778, 778, 778, 778, 777, 776, 776, 776, 776, 776, 775, 775, 774, 774, 774, 774, 773, 773, 773, 773, 773, 773, 773, 773, 773, 773, 773, 773, 773, 773, 773, 773
700, 700, 703, 703, 707, 711, 711, 715, 719, 719, 724, 728, 728, 732, 736, 736, 739, 742, 742, 744, 746, 746, 749, 751, 751, 752, 753, 753, 754, 754, 755, 0, 0, 0, 0, 0, 0, 0, 0, 0, 0, 0, 0, 0, 0, 0, 0, 0, 0, 0, 0, 0, 550, 550, 550, 550, 550, 549, 549, 550, 550, 550, 550, 550, 550, 550, 550, 550, 550, 550, 550, 550, 551, 551, 551, 551, 551, 551, 552, 552, 552, 552, 553, 553, 553, 553, 553, 553, 553, 553, 553, 553, 553, 553, 553, 553, 553, 553, 553, 553, 552, 552, 552, 552, 552, 552, 551, 551, 551, 551, 551, 551, 551, 551, 551, 551, 551, 551, 551, 551, 551, 552, 552, 552, 552, 552, 552, 552, 552, 552, 552, 553, 553, 553, 553, 553, 553, 553, 553, 553, 553, 552, 552, 552, 552, 552, 552, 552, 552, 552, 552, 552, 552, 552, 552, 552, 552, 552, 551, 551, 551, 551, 551, 551, 551, 551, 551, 551, 551, 552, 552, 552, 552, 552, 552, 553, 553, 554, 554, 554, 554, 554, 554, 554, 554, 554, 554, 554, 554, 554, 553, 553, 553, 552, 552, 552, 552, 552, 552, 552, 552, 552, 552, 552, 552, 553, 553, 553, 553, 553, 553, 553, 554, 554, 554, 554, 554, 555, 555, 555, 555, 556, 556, 556, 557, 557, 557, 556, 556, 556, 556, 556, 556, 556, 556, 556, 556, 556, 556, 556, 556, 556, 556, 556, 556, 556, 556, 556, 556, 556, 556, 556, 556, 556, 556, 555, 555, 555, 555, 555, 555, 555, 555, 555, 555, 555, 555, 555, 555, 555, 555, 555, 555, 555, 555, 555, 555, 555, 555, 555, 556, 556, 556, 556, 556, 557, 557, 557, 557, 557, 557, 558, 558, 558, 558, 557, 557, 557, 557, 557, 556, 556, 556, 556, 556, 556, 556, 557, 557, 557, 557, 557, 557, 558, 558, 558, 559, 559, 560, 559, 559, 559, 558, 558, 558, 558, 558, 557, 557, 557, 556, 556, 556, 556, 556, 556, 556, 556, 556, 556, 556, 556, 556, 556, 556, 556, 556, 556, 556, 556, 556, 556, 556, 556, 556, 555, 555, 555, 555, 555, 555, 555, 555, 555, 555, 555, 555, 556, 556, 556, 556, 556, 556, 556, 556, 556, 556, 556, 556, 556, 556, 556, 557, 557, 557, 557, 557, 557, 557, 557, 557, 557, 557, 557, 557, 557, 557, 557, 557, 557, 557, 557, 557, 557, 557, 556, 556, 557, 557, 557, 557, 556, 556, 556, 556, 556, 556, 555, 555, 555, 555, 555, 556, 556, 556, 556, 557, 557, 557, 558, 558, 558, 558, 559, 560, 560, 560, 561, 561, 561, 561, 561, 561, 561, 562, 562, 561, 561, 561, 561, 561, 561, 561, 561, 561, 561, 561, 561, 561, 561, 561, 562, 562, 562, 562, 562, 563, 563, 563, 563, 563, 564, 564, 564, 564, 565, 565, 565, 566, 566, 566, 566, 567, 567, 567, 567, 567, 567, 568, 568, 568, 568, 568, 567, 567, 567, 567, 567, 567, 567, 567, 567, 567, 566, 566, 566, 566, 566, 566, 566, 566, 566, 567, 567, 567, 567, 567, 567, 567, 567, 567, 567, 567, 568, 568, 568, 569, 569, 569, 569, 569, 570, 570, 570, 571, 571, 570, 570, 570, 570, 570, 569, 569, 569, 569, 569, 569, 569, 569, 569, 778, 778, 779, 779, 779, 779, 779, 779, 780, 780, 780, 780, 780, 780, 780, 780, 780, 780, 780, 779, 779, 779, 779, 778, 778, 778, 778, 777, 776, 776, 776, 776, 776, 775, 775, 774, 774, 774, 774, 773, 773, 773, 773, 773, 773, 773, 773, 773, 773, 773, 773, 773, 773, 773, 773
701, 701, 704, 709, 709, 712, 712, 716, 721, 721, 725, 730, 730, 734, 737, 737, 740, 744, 744, 745, 748, 748, 750, 752, 752, 753, 753, 753, 754, 754, 755, 0, 0, 0, 0, 0, 0, 0, 0, 0, 0, 0, 0, 0, 0, 0, 0, 0, 0, 0, 0, 0, 549, 549, 549, 550, 550, 549, 549, 550, 550, 550, 550, 550, 550, 550, 550, 550, 550, 550, 550, 550, 551, 551, 551, 551, 551, 551, 552, 552, 552, 552, 553, 553, 553, 553, 553, 553, 553, 553, 553, 553, 553, 553, 553, 553, 553, 553, 553, 553, 552, 552, 552, 552, 552, 552, 551, 551, 551, 551, 551, 551, 551, 551, 551, 551, 551, 551, 551, 551, 551, 551, 551, 552, 552, 552, 552, 552, 552, 552, 552, 552, 552, 552, 553, 553, 553, 553, 553, 553, 553, 552, 552, 552, 552, 552, 552, 552, 552, 552, 552, 552, 552, 552, 552, 552, 552, 552, 551, 551, 551, 551, 551, 551, 551, 551, 551, 551, 551, 552, 552, 552, 552, 552, 553, 553, 553, 554, 554, 554, 555, 555, 555, 555, 555, 554, 554, 554, 554, 554, 554, 554, 553, 553, 553, 553, 553, 552, 552, 553, 553, 553, 553, 553, 553, 553, 553, 553, 553, 553, 553, 553, 554, 554, 554, 554, 555, 555, 555, 555, 555, 556, 556, 556, 557, 557, 557, 557, 556, 556, 556, 556, 556, 556, 556, 556, 556, 556, 556, 556, 556, 556, 556, 556, 556, 556, 556, 556, 556, 556, 556, 556, 556, 556, 556, 555, 555, 555, 555, 555, 555, 555, 555, 555, 555, 555, 555, 555, 555, 555, 555, 555, 555, 555, 555, 555, 555, 555, 556, 556, 556, 556, 556, 556, 556, 557, 557, 557, 557, 558, 558, 558, 558, 558, 558, 557, 557, 557, 557, 557, 556, 556, 556, 556, 556, 556, 556, 557, 557, 557, 557, 557, 557, 558, 558, 558, 559, 559, 560, 559, 559, 559, 558, 558, 558, 558, 558, 557, 557, 557, 556, 556, 556, 556, 556, 556, 556, 556, 556, 556, 556, 556, 556, 556, 556, 557, 556, 556, 556, 556, 556, 556, 556, 556, 556, 556, 556, 555, 555, 555, 555, 555, 555, 555, 556, 556, 556, 556, 556, 556, 556, 556, 556, 556, 557, 557, 557, 557, 557, 557, 557, 557, 557, 557, 557, 557, 557, 557, 557, 557, 557, 557, 557, 557, 557, 557, 557, 557, 557, 557, 557, 557, 557, 556, 556, 556, 556, 557, 557, 556, 556, 556, 556, 556, 556, 556, 555, 555, 555, 555, 555, 555, 555, 556, 556, 556, 557, 557, 557, 558, 558, 558, 558, 559, 560, 560, 560, 561, 561, 561, 561, 561, 561, 561, 562, 562, 561, 561, 561, 561, 561, 561, 561, 561, 561, 561, 561, 561, 561, 561, 561, 562, 562, 562, 562, 562, 563, 563, 563, 563, 563, 564, 564, 564, 564, 565, 565, 565, 566, 566, 566, 566, 567, 567, 567, 567, 567, 567, 568, 568, 568, 568, 568, 567, 567, 567, 567, 567, 567, 567, 567, 567, 567, 566, 566, 566, 566, 566, 566, 566, 566, 566, 566, 567, 567, 567, 567, 567, 567, 567, 567, 568, 568, 568, 568, 568, 569, 569, 569, 570, 570, 570, 570, 570, 571, 571, 571, 571, 571, 570, 570, 569, 569, 569, 569, 569, 569, 569, 569, 569, 779, 779, 779, 779, 779, 779, 779, 779, 780, 780, 780, 780, 780, 780, 780, 780, 780, 780, 780, 779, 779, 779, 778, 778, 778, 778, 778, 777, 776, 776, 776, 776, 776, 775, 775, 774, 774, 774, 774, 773, 773, 773, 773, 773, 773, 773, 773, 773, 773, 773, 773, 773, 773, 773, 773
701, 701, 704, 709, 709, 712, 712, 716, 721, 721, 725, 730, 730, 734, 737, 737, 740, 744, 744, 745, 748, 748, 750, 752, 752, 753, 753, 753, 754, 754, 755, 0, 0, 0, 0, 0, 0, 0, 0, 0, 0, 0, 0, 0, 0, 0, 0, 0, 0, 0, 0, 549, 549, 549, 549, 550, 550, 549, 549, 550, 550, 550, 550, 550, 550, 550, 550, 550, 550, 550, 550, 550, 551, 551, 551, 551, 551, 551, 552, 552, 552, 552, 552, 553, 553, 553, 553, 553, 553, 553, 553, 553, 553, 553, 553, 553, 553, 553, 553, 553, 553, 552, 552, 552, 552, 552, 552, 552, 551, 551, 551, 551, 551, 551, 551, 551, 551, 551, 551, 551, 551, 551, 551, 552, 552, 552, 552, 552, 552, 552, 552, 552, 552, 552, 553, 553, 553, 553, 553, 553, 553, 552, 552, 552, 552, 552, 552, 552, 552, 552, 552, 552, 552, 552, 552, 552, 552, 552, 551, 551, 551, 551, 551, 551, 551, 551, 551, 552, 552, 552, 552, 552, 553, 553, 553, 554, 554, 554, 555, 555, 555, 555, 555, 555, 555, 555, 555, 555, 554, 554, 554, 554, 554, 553, 553, 553, 553, 553, 553, 553, 553, 553, 553, 553, 553, 554, 554, 554, 554, 554, 554, 554, 554, 554, 554, 555, 555, 555, 555, 555, 555, 556, 556, 556, 557, 557, 557, 557, 556, 556, 556, 556, 556, 556, 556, 556, 556, 556, 556, 556, 556, 556, 556, 556, 556, 556, 556, 556, 556, 556, 556, 556, 556, 556, 556, 555, 555, 555, 555, 555, 555, 555, 555, 555, 555, 555, 555, 555, 555, 555, 555, 555, 555, 555, 555, 555, 555, 555, 556, 556, 556, 556, 556, 556, 556, 557, 557, 557, 557, 557, 557, 557, 557, 557, 557, 557, 557, 557, 556, 556, 556, 556, 556, 556, 556, 556, 556, 556, 556, 556, 557, 557, 557, 558, 558, 558, 558, 558, 558, 558, 558, 558, 558, 557, 557, 557, 557, 557, 557, 557, 556, 556, 556, 556, 556, 556, 556, 556, 556, 556, 556, 556, 556, 556, 556, 557, 556, 556, 556, 556, 556, 556, 556, 556, 556, 556, 556, 555, 555, 555, 555, 555, 555, 555, 556, 556, 556, 556, 556, 556, 556, 556, 556, 556, 557, 557, 557, 557, 557, 557, 557, 557, 557, 557, 557, 557, 557, 557, 557, 557, 557, 557, 557, 556, 556, 556, 556, 556, 557, 557, 557, 556, 556, 556, 556, 556, 556, 557, 557, 556, 556, 556, 556, 556, 556, 556, 555, 555, 555, 555, 555, 555, 555, 555, 555, 556, 557, 557, 557, 558, 558, 558, 558, 560, 560, 560, 561, 561, 561, 561, 562, 562, 562, 562, 562, 562, 562, 562, 562, 562, 562, 562, 562, 562, 562, 561, 561, 561, 562, 562, 562, 562, 562, 562, 563, 563, 563, 563, 563, 563, 563, 564, 564, 564, 565, 565, 565, 565, 566, 566, 567, 567, 567, 567, 567, 568, 568, 568, 568, 568, 568, 568, 568, 568, 568, 568, 568, 568, 567, 567, 567, 567, 567, 567, 567, 566, 566, 566, 566, 566, 566, 566, 566, 567, 567, 567, 567, 567, 567, 567, 567, 568, 568, 568, 568, 568, 569, 569, 569, 570, 570, 570, 570, 570, 571, 571, 571, 571, 571, 570, 570, 570, 570, 570, 569, 569, 569, 569, 569, 569, 779, 779, 779, 779, 780, 780, 780, 780, 780, 780, 780, 780, 780, 780, 780, 780, 780, 780, 780, 779, 779, 779, 778, 778, 778, 778, 778, 777, 776, 776, 776, 776, 776, 775, 775, 774, 774, 774, 774, 773, 773, 773, 773, 773, 773, 773, 772, 772, 772, 772, 772, 772, 772, 772, 772
701, 701, 705, 709, 709, 714, 718, 718, 722, 722, 727, 731, 731, 736, 739, 739, 743, 745, 745, 748, 750, 750, 752, 753, 753, 753, 754, 754, 755, 755, 756, 0, 0, 0, 0, 0, 0, 0, 0, 0, 0, 0, 0, 0, 0, 0, 0, 0, 0, 0, 0, 549, 549, 549, 549, 550, 550, 550, 550, 550, 550, 550, 550, 550, 550, 550, 550, 550, 550, 550, 550, 550, 551, 551, 551, 551, 551, 551, 552, 552, 552, 552, 552, 553, 553, 553, 553, 553, 553, 553, 553, 554, 554, 554, 554, 553, 553, 553, 553, 553, 553, 553, 553, 552, 552, 552, 552, 552, 552, 551, 551, 551, 551, 551, 551, 551, 551, 551, 551, 551, 551, 551, 551, 552, 552, 552, 552, 552, 552, 552, 552, 552, 552, 552, 553, 553, 553, 553, 553, 552, 552, 552, 552, 552, 552, 552, 552, 552, 552, 552, 552, 552, 552, 552, 552, 552, 552, 552, 551, 551, 551, 551, 551, 551, 551, 551, 551, 552, 552, 552, 552, 552, 553, 553, 553, 554, 554, 554, 555, 555, 555, 555, 555, 555, 555, 555, 555, 555, 554, 554, 554, 554, 554, 553, 553, 553, 553, 553, 553, 553, 553, 553, 553, 553, 553, 554, 554, 554, 554, 554, 554, 554, 554, 554, 554, 555, 555, 555, 555, 555, 555, 556, 556, 556, 557, 557, 557, 557, 556, 556, 556, 556, 556, 556, 556, 556, 556, 556, 556, 556, 556, 556, 556, 556, 556, 556, 556, 556, 556, 556, 556, 556, 556, 556, 556, 555, 555, 555, 555, 555, 555, 555, 555, 555, 555, 555, 555, 555, 555, 555, 555, 555, 555, 555, 555, 555, 555, 556, 556, 556, 556, 556, 556, 556, 556, 556, 557, 557, 557, 557, 557, 557, 557, 556, 556, 556, 556, 556, 556, 556, 556, 555, 555, 555, 555, 555, 555, 556, 556, 556, 556, 556, 557, 557, 557, 558, 558, 558, 558, 558, 558, 558, 558, 557, 557, 557, 557, 557, 556, 556, 556, 556, 556, 556, 556, 556, 556, 556, 556, 556, 556, 556, 557, 557, 557, 557, 556, 556, 556, 556, 556, 556, 556, 556, 556, 556, 556, 555, 555, 555, 555, 555, 555, 556, 556, 556, 556, 556, 556, 556, 556, 556, 556, 556, 557, 557, 557, 557, 557, 557, 557, 557, 557, 557, 557, 557, 557, 557, 557, 557, 557, 557, 557, 556, 556, 556, 556, 556, 557, 557, 557, 556, 556, 556, 556, 556, 556, 557, 557, 556, 556, 556, 556, 556, 556, 556, 555, 555, 555, 555, 555, 555, 555, 555, 555, 556, 557, 557, 557, 558, 558, 559, 559, 560, 561, 561, 561, 562, 562, 562, 562, 562, 562, 562, 563, 563, 563, 563, 563, 563, 563, 563, 562, 562, 562, 562, 562, 562, 562, 562, 562, 562, 562, 563, 563, 563, 563, 563, 563, 563, 563, 564, 564, 564, 565, 565, 565, 565, 566, 566, 567, 567, 567, 567, 567, 568, 568, 568, 568, 568, 568, 568, 568, 568, 568, 568, 568, 568, 567, 567, 567, 567, 567, 567, 567, 566, 566, 566, 566, 566, 566, 566, 566, 567, 567, 567, 567, 567, 567, 567, 567, 567, 567, 567, 567, 568, 568, 568, 569, 569, 569, 570, 570, 570, 571, 571, 571, 571, 571, 570, 570, 570, 570, 570, 569, 569, 569, 569, 569, 569, 779, 779, 779, 779, 780, 780, 780, 780, 780, 780, 780, 780, 780, 780, 780, 779, 779, 779, 779, 779, 778, 778, 778, 778, 778, 778, 778, 777, 776, 776, 776, 776, 776, 775, 775, 774, 774, 774, 774, 773, 773, 773, 773, 773, 773, 773, 772, 772, 772, 772, 772, 772, 772, 772, 772
702, 702, 706, 709, 709, 714, 718, 718, 722, 722, 727, 731, 731, 736, 739, 739, 743, 745, 745, 748, 750, 750, 752, 753, 753, 753, 754, 754, 755, 755, 756, 0, 0, 0, 0, 0, 0, 0, 0, 0, 0, 0, 0, 0, 0, 0, 0, 0, 0, 0, 0, 549, 549, 549, 549, 550, 550, 550, 550, 550, 550, 550, 550, 550, 550, 550, 550, 550, 550, 550, 550, 550, 551, 551, 551, 551, 551, 551, 552, 552, 552, 552, 552, 553, 553, 553, 553, 553, 553, 553, 553, 554, 554, 554, 554, 553, 553, 553, 553, 553, 553, 553, 553, 552, 552, 552, 552, 552, 552, 551, 551, 551, 551, 551, 551, 551, 551, 551, 551, 551, 551, 551, 551, 552, 552, 552, 552, 552, 552, 552, 552, 552, 552, 552, 553, 553, 553, 553, 553, 552, 552, 552, 552, 552, 552, 552, 552, 552, 552, 552, 552, 552, 552, 552, 552, 552, 552, 552, 552, 552, 551, 551, 551, 551, 551, 551, 551, 552, 552, 552, 553, 553, 553, 553, 554, 554, 554, 555, 555, 555, 556, 556, 556, 556, 556, 555, 555, 555, 554, 554, 554, 554, 554, 554, 554, 554, 553, 553, 553, 554, 554, 554, 554, 554, 554, 554, 554, 554, 554, 554, 554, 554, 554, 554, 554, 555, 555, 555, 555, 555, 555, 556, 556, 556, 557, 557, 557, 557, 557, 557, 557, 557, 557, 556, 556, 556, 556, 556, 556, 556, 556, 556, 556, 556, 556, 556, 556, 556, 556, 556, 556, 556, 556, 556, 556, 555, 555, 555, 555, 555, 555, 555, 555, 555, 555, 555, 555, 555, 555, 555, 555, 555, 556, 556, 556, 556, 556, 556, 556, 556, 556, 556, 556, 556, 556, 556, 557, 557, 557, 557, 557, 557, 557, 556, 556, 556, 556, 556, 556, 556, 556, 555, 555, 555, 555, 555, 555, 556, 556, 556, 556, 556, 557, 557, 557, 558, 558, 558, 558, 558, 558, 558, 558, 557, 557, 557, 557, 557, 556, 556, 556, 556, 556, 556, 556, 556, 556, 556, 556, 557, 557, 557, 557, 557, 557, 557, 556, 556, 556, 556, 556, 556, 556, 556, 556, 556, 556, 555, 555, 555, 555, 555, 555, 556, 556, 556, 556, 556, 556, 556, 556, 556, 556, 556, 557, 557, 557, 557, 557, 557, 557, 557, 557, 557, 557, 557, 557, 557, 557, 557, 557, 557, 557, 556, 556, 556, 556, 556, 556, 556, 556, 556, 556, 556, 556, 556, 556, 556, 556, 556, 556, 556, 556, 556, 555, 555, 555, 555, 555, 555, 555, 555, 555, 555, 555, 556, 557, 557, 557, 558, 558, 559, 559, 560, 561, 561, 561, 562, 562, 562, 562, 562, 562, 562, 563, 563, 563, 563, 563, 563, 563, 563, 562, 562, 562, 562, 562, 562, 562, 562, 562, 562, 562, 563, 563, 563, 563, 563, 563, 564, 564, 564, 564, 564, 565, 565, 565, 566, 566, 566, 567, 567, 567, 568, 568, 568, 568, 568, 569, 569, 568, 568, 568, 568, 568, 568, 568, 568, 568, 568, 567, 567, 567, 567, 567, 566, 566, 566, 566, 566, 566, 566, 566, 566, 566, 566, 566, 566, 566, 566, 567, 567, 567, 567, 567, 568, 568, 568, 569, 569, 569, 570, 570, 570, 571, 571, 571, 571, 571, 570, 570, 570, 570, 570, 570, 570, 569, 569, 779, 779, 779, 779, 779, 779, 780, 780, 780, 780, 780, 780, 780, 780, 780, 780, 780, 779, 779, 779, 779, 779, 778, 778, 778, 778, 778, 778, 778, 777, 777, 777, 776, 776, 776, 776, 776, 775, 774, 774, 774, 774, 774, 773, 773, 773, 773, 773, 772, 772, 772, 772, 772, 772, 772, 772, 772
702, 702, 706, 710, 710, 714, 719, 719, 724, 728, 728, 733, 737, 737, 741, 741, 744, 747, 747, 749, 752, 752, 753, 754, 754, 754, 755, 755, 756, 756, 756, 0, 0, 0, 0, 0, 0, 0, 0, 0, 0, 0, 0, 0, 0, 0, 0, 0, 0, 0, 0, 550, 549, 549, 549, 549, 550, 550, 550, 550, 550, 550, 550, 550, 550, 550, 551, 551, 551, 551, 551, 551, 551, 551, 551, 551, 551, 551, 552, 552, 552, 552, 552, 553, 553, 553, 553, 553, 553, 553, 554, 554, 554, 554, 554, 554, 553, 553, 553, 553, 553, 553, 553, 553, 552, 552, 552, 552, 552, 551, 551, 551, 551, 551, 551, 551, 551, 551, 551, 551, 551, 552, 552, 552, 552, 552, 552, 552, 552, 552, 552, 553, 553, 553, 553, 553, 553, 553, 553, 553, 553, 552, 552, 553, 553, 553, 553, 552, 552, 552, 552, 553, 553, 553, 552, 552, 552, 552, 552, 552, 552, 552, 552, 551, 551, 551, 552, 552, 552, 553, 553, 553, 554, 554, 554, 554, 554, 555, 555, 555, 556, 556, 556, 556, 556, 556, 556, 555, 555, 555, 555, 555, 554, 554, 554, 554, 554, 554, 554, 554, 554, 554, 554, 554, 554, 554, 554, 554, 554, 554, 554, 554, 554, 554, 554, 555, 555, 555, 555, 555, 555, 556, 556, 556, 557, 557, 557, 557, 557, 557, 557, 557, 557, 556, 556, 556, 556, 556, 556, 556, 556, 556, 556, 556, 556, 556, 556, 556, 556, 556, 556, 556, 556, 556, 555, 555, 555, 555, 555, 555, 555, 555, 555, 555, 555, 555, 555, 555, 555, 555, 555, 555, 556, 556, 555, 555, 555, 555, 555, 555, 556, 556, 556, 556, 556, 556, 556, 556, 556, 557, 556, 556, 556, 556, 556, 556, 556, 556, 556, 556, 555, 555, 555, 555, 555, 555, 555, 556, 556, 556, 556, 556, 557, 557, 557, 557, 558, 558, 558, 558, 558, 558, 558, 557, 557, 557, 557, 556, 556, 556, 556, 556, 556, 556, 556, 556, 556, 556, 556, 557, 557, 557, 557, 557, 557, 557, 557, 557, 557, 557, 556, 556, 556, 556, 556, 556, 556, 556, 556, 556, 556, 556, 556, 556, 556, 556, 556, 556, 556, 556, 556, 556, 557, 557, 557, 557, 557, 557, 557, 557, 557, 557, 557, 557, 557, 557, 557, 557, 557, 557, 557, 557, 556, 556, 556, 556, 556, 556, 556, 556, 556, 556, 556, 556, 556, 556, 556, 556, 556, 556, 556, 556, 556, 556, 555, 555, 555, 555, 555, 555, 555, 555, 555, 555, 555, 556, 557, 557, 558, 558, 558, 559, 559, 560, 561, 561, 562, 562, 562, 563, 563, 563, 563, 563, 563, 564, 564, 563, 563, 563, 563, 563, 563, 563, 563, 563, 563, 563, 563, 563, 563, 563, 563, 563, 564, 564, 564, 564, 564, 564, 564, 564, 565, 565, 565, 566, 566, 566, 566, 566, 567, 567, 567, 568, 568, 568, 568, 568, 569, 569, 569, 569, 569, 569, 569, 568, 568, 568, 568, 568, 568, 567, 567, 567, 567, 566, 566, 566, 566, 566, 566, 566, 566, 566, 566, 566, 566, 566, 566, 566, 567, 567, 567, 567, 567, 568, 568, 568, 569, 569, 569, 570, 570, 570, 571, 571, 571, 571, 571, 571, 571, 570, 570, 570, 570, 570, 570, 570, 779, 779, 779, 779, 779, 779, 780, 780, 780, 780, 780, 780, 780, 780, 780, 780, 779, 779, 779, 778, 778, 778, 778, 778, 778, 778, 778, 778, 778, 777, 777, 777, 776, 776, 776, 776, 776, 775, 774, 774, 774, 774, 774, 773, 773, 773, 773, 773, 772, 772, 772, 772, 772, 772, 772, 772, 772
703, 703, 707, 711, 711, 715, 720, 720, 724, 730, 730, 735, 739, 739, 743, 746, 746, 749, 749, 751, 753, 753, 754, 755, 755, 755, 755, 755, 756, 756, 757, 0, 0, 0, 0, 0, 0, 0, 0, 0, 0, 0, 0, 0, 0, 0, 0, 0, 0, 0, 0, 550, 549, 549, 549, 549, 550, 550, 550, 550, 550, 550, 550, 550, 550, 550, 551, 551, 551, 551, 551, 551, 551, 551, 551, 551, 551, 552, 552, 552, 552, 552, 552, 553, 553, 553, 553, 553, 554, 554, 554, 554, 554, 554, 554, 554, 553, 553, 553, 553, 553, 553, 553, 553, 552, 552, 552, 552, 552, 551, 551, 551, 551, 551, 551, 551, 551, 551, 551, 551, 551, 552, 552, 552, 552, 552, 552, 552, 552, 552, 552, 553, 553, 553, 553, 553, 553, 553, 553, 553, 553, 552, 552, 553, 553, 553, 553, 552, 552, 552, 552, 553, 553, 553, 552, 552, 552, 552, 552, 552, 552, 552, 552, 551, 551, 551, 552, 552, 552, 553, 553, 553, 554, 554, 554, 554, 554, 555, 555, 555, 556, 556, 556, 556, 556, 556, 556, 555, 555, 555, 555, 555, 554, 554, 554, 554, 554, 554, 554, 554, 554, 554, 554, 554, 554, 554, 554, 554, 554, 554, 554, 554, 554, 554, 554, 555, 555, 555, 555, 555, 555, 555, 555, 556, 557, 557, 557, 557, 557, 557, 557, 557, 557, 557, 557, 557, 556, 556, 556, 556, 556, 556, 556, 556, 556, 556, 556, 556, 556, 556, 556, 556, 555, 555, 555, 555, 555, 555, 555, 555, 555, 555, 555, 555, 555, 555, 555, 555, 555, 555, 555, 555, 556, 555, 555, 555, 555, 555, 555, 555, 555, 555, 555, 556, 556, 556, 556, 556, 556, 556, 556, 556, 556, 556, 556, 556, 556, 556, 556, 556, 555, 555, 555, 555, 555, 555, 555, 556, 556, 556, 556, 556, 557, 557, 557, 557, 558, 558, 558, 558, 558, 558, 558, 557, 557, 557, 557, 556, 556, 556, 556, 556, 556, 556, 556, 556, 556, 556, 556, 557, 557, 557, 557, 557, 557, 557, 557, 557, 557, 557, 557, 557, 557, 557, 557, 556, 556, 556, 556, 556, 556, 556, 556, 556, 556, 556, 556, 556, 556, 556, 556, 557, 557, 557, 557, 557, 557, 557, 557, 557, 557, 557, 557, 557, 557, 557, 557, 557, 557, 557, 557, 557, 556, 556, 556, 556, 556, 556, 556, 556, 556, 556, 556, 556, 556, 556, 556, 556, 556, 556, 556, 556, 556, 556, 555, 555, 555, 555, 555, 555, 555, 555, 555, 555, 555, 556, 557, 557, 558, 558, 558, 559, 559, 560, 561, 561, 562, 562, 562, 563, 563, 563, 563, 563, 563, 564, 564, 563, 563, 563, 563, 563, 563, 563, 563, 563, 563, 563, 563, 563, 563, 563, 563, 563, 564, 564, 564, 564, 564, 564, 564, 564, 565, 565, 565, 565, 565, 566, 566, 566, 567, 567, 567, 568, 568, 568, 568, 568, 569, 569, 569, 569, 569, 569, 569, 568, 568, 568, 568, 568, 568, 567, 567, 567, 567, 566, 566, 566, 566, 566, 566, 566, 566, 566, 566, 566, 566, 566, 566, 566, 567, 567, 567, 567, 567, 568, 568, 568, 569, 569, 569, 570, 570, 570, 571, 571, 571, 571, 571, 571, 571, 570, 570, 570, 570, 570, 570, 570, 780, 780, 780, 780, 780, 780, 780, 780, 780, 780, 780, 779, 779, 779, 779, 779, 778, 778, 778, 778, 778, 778, 778, 778, 778, 778, 778, 777, 777, 777, 777, 777, 776, 776, 776, 776, 776, 776, 775, 775, 774, 774, 774, 774, 774, 774, 773, 773, 772, 772, 772, 772, 772, 772, 772, 772, 772
703, 703, 707, 711, 711, 715, 720, 720, 724, 730, 730, 735, 739, 739, 743, 746, 746, 749, 749, 751, 753, 753, 754, 755, 755, 755, 755, 755, 756, 756, 757, 0, 0, 0, 0, 0, 0, 0, 0, 0, 0, 0, 0, 0, 0, 0, 0, 0, 0, 550, 550, 550, 549, 549, 549, 549, 550, 550, 550, 550, 550, 550, 550, 550, 550, 550, 551, 551, 551, 551, 551, 551, 551, 551, 551, 551, 551, 552, 552, 552, 552, 552, 552, 553, 553, 553, 553, 553, 554, 554, 554, 554, 554, 554, 554, 554, 554, 554, 554, 554, 553, 553, 553, 553, 553, 553, 552, 552, 552, 552, 552, 552, 551, 551, 551, 551, 551, 551, 552, 552, 552, 552, 552, 552, 552, 552, 552, 552, 552, 552, 552, 553, 553, 553, 553, 553, 553, 553, 553, 553, 553, 553, 553, 553, 553, 553, 553, 553, 553, 553, 553, 553, 553, 553, 553, 552, 552, 552, 552, 552, 552, 552, 552, 552, 552, 552, 552, 553, 553, 553, 553, 553, 554, 554, 554, 555, 555, 555, 556, 556, 556, 556, 556, 556, 556, 556, 556, 556, 555, 555, 555, 555, 554, 554, 554, 554, 554, 554, 554, 554, 554, 554, 554, 554, 554, 554, 554, 554, 554, 554, 554, 554, 554, 554, 554, 555, 555, 555, 555, 555, 555, 555, 555, 556, 557, 557, 557, 557, 557, 557, 557, 557, 557, 557, 557, 557, 557, 557, 556, 556, 556, 556, 556, 556, 556, 556, 556, 556, 556, 556, 556, 556, 555, 555, 555, 555, 555, 555, 555, 555, 555, 555, 555, 555, 555, 555, 555, 555, 555, 555, 555, 555, 556, 555, 555, 555, 555, 555, 555, 555, 555, 555, 555, 556, 556, 556, 556, 556, 556, 556, 556, 556, 556, 556, 556, 556, 556, 556, 556, 556, 555, 555, 555, 555, 555, 555, 555, 556, 556, 556, 556, 556, 556, 557, 557, 557, 558, 558, 558, 558, 557, 557, 557, 557, 557, 556, 556, 556, 556, 556, 556, 556, 556, 556, 556, 556, 556, 556, 556, 557, 557, 557, 557, 557, 557, 557, 557, 557, 557, 557, 557, 557, 557, 557, 557, 556, 556, 556, 556, 556, 556, 556, 556, 556, 556, 556, 556, 556, 556, 556, 556, 557, 557, 557, 557, 557, 557, 557, 557, 557, 557, 557, 557, 557, 557, 557, 557, 557, 557, 557, 557, 557, 556, 556, 556, 556, 556, 556, 556, 556, 556, 556, 556, 556, 556, 556, 556, 556, 556, 556, 556, 556, 556, 556, 555, 555, 555, 555, 555, 555, 555, 555, 555, 555, 555, 556, 557, 557, 558, 559, 559, 560, 561, 561, 562, 562, 562, 563, 563, 563, 563, 563, 564, 564, 564, 564, 564, 564, 564, 564, 563, 563, 563, 564, 563, 563, 563, 563, 563, 563, 563, 563, 563, 564, 564, 564, 564, 564, 564, 564, 564, 564, 565, 565, 565, 565, 565, 566, 566, 566, 567, 567, 567, 568, 568, 568, 568, 568, 568, 568, 569, 569, 569, 568, 568, 568, 568, 568, 568, 568, 567, 567, 567, 566, 566, 566, 566, 566, 566, 566, 566, 566, 566, 566, 566, 566, 566, 566, 566, 566, 567, 567, 567, 567, 567, 568, 568, 568, 569, 569, 569, 570, 571, 571, 571, 571, 571, 571, 571, 571, 571, 571, 571, 571, 570, 570, 570, 571, 781, 780, 780, 780, 780, 780, 780, 780, 780, 780, 780, 779, 779, 779, 779, 779, 778, 778, 778, 778, 778, 778, 778, 778, 778, 778, 778, 777, 777, 777, 777, 777, 777, 776, 776, 776, 776, 776, 776, 776, 775, 774, 774, 774, 774, 774, 773, 773, 773, 772, 772, 772, 772, 772, 772, 773, 773
702, 702, 707, 711, 711, 715, 720, 720, 724, 730, 730, 735, 741, 741, 744, 747, 747, 749, 749, 751, 753, 753, 754, 755, 755, 755, 756, 756, 756, 756, 757, 0, 0, 0, 0, 0, 0, 0, 0, 0, 0, 0, 0, 0, 0, 0, 0, 0, 0, 550, 550, 550, 549, 549, 549, 549, 550, 550, 550, 550, 550, 550, 550, 551, 551, 551, 551, 551, 551, 551, 551, 551, 551, 551, 552, 552, 552, 552, 552, 552, 553, 553, 553, 553, 553, 553, 554, 554, 554, 554, 554, 554, 554, 554, 554, 554, 554, 554, 554, 554, 554, 553, 553, 553, 553, 553, 552, 552, 552, 552, 552, 552, 552, 552, 551, 551, 551, 552, 552, 552, 552, 552, 552, 552, 552, 552, 552, 552, 553, 553, 553, 553, 553, 553, 553, 553, 553, 553, 553, 553, 553, 553, 553, 553, 553, 553, 553, 553, 553, 553, 553, 553, 553, 553, 553, 552, 552, 552, 552, 552, 552, 552, 552, 552, 552, 552, 553, 553, 553, 553, 554, 554, 554, 554, 554, 555, 555, 556, 556, 556, 556, 556, 556, 556, 556, 556, 556, 556, 555, 555, 555, 555, 554, 554, 554, 554, 554, 554, 554, 554, 554, 554, 554, 554, 554, 554, 554, 554, 554, 554, 554, 554, 554, 554, 554, 555, 555, 555, 555, 555, 555, 555, 555, 556, 556, 556, 557, 556, 556, 556, 556, 557, 557, 557, 557, 557, 556, 556, 556, 556, 556, 556, 556, 556, 556, 556, 556, 556, 556, 556, 555, 555, 555, 555, 555, 555, 555, 554, 554, 554, 554, 555, 555, 555, 555, 555, 555, 555, 555, 555, 555, 555, 556, 555, 555, 555, 555, 555, 555, 555, 555, 555, 555, 556, 556, 556, 556, 556, 556, 556, 556, 556, 556, 556, 556, 556, 556, 556, 555, 555, 555, 555, 555, 555, 555, 555, 555, 556, 556, 556, 556, 556, 556, 557, 557, 557, 557, 557, 557, 557, 557, 557, 557, 557, 557, 556, 556, 556, 556, 556, 556, 556, 556, 556, 556, 556, 556, 556, 556, 557, 557, 557, 557, 557, 557, 558, 558, 557, 557, 557, 557, 557, 557, 557, 557, 557, 557, 557, 556, 556, 556, 557, 557, 557, 557, 557, 557, 557, 557, 557, 557, 556, 556, 556, 557, 557, 557, 557, 556, 556, 556, 556, 557, 557, 557, 557, 557, 557, 557, 557, 557, 557, 557, 556, 556, 556, 556, 556, 556, 556, 556, 556, 556, 556, 556, 556, 556, 556, 556, 556, 556, 556, 556, 556, 555, 555, 555, 555, 555, 555, 555, 555, 555, 555, 555, 556, 557, 557, 558, 559, 559, 560, 561, 561, 562, 562, 562, 563, 563, 563, 563, 563, 564, 564, 564, 564, 564, 564, 564, 564, 564, 564, 564, 564, 564, 564, 564, 564, 564, 564, 564, 564, 564, 564, 564, 564, 564, 564, 564, 564, 564, 565, 565, 565, 565, 566, 566, 566, 566, 566, 567, 567, 567, 568, 568, 568, 568, 568, 568, 568, 569, 569, 569, 568, 568, 568, 568, 568, 568, 568, 567, 567, 567, 566, 566, 566, 566, 566, 566, 566, 566, 566, 566, 566, 566, 566, 566, 566, 566, 566, 567, 567, 567, 567, 567, 568, 568, 568, 569, 569, 569, 570, 571, 571, 571, 571, 571, 571, 571, 571, 571, 571, 571, 571, 570, 570, 570, 570, 570, 570, 780, 780, 780, 780, 780, 780, 780, 779, 779, 779, 779, 779, 778, 778, 778, 778, 778, 778, 778, 778, 778, 778, 777, 777, 777, 777, 777, 777, 777, 777, 777, 776, 776, 776, 776, 776, 776, 776, 775, 774, 774, 774, 774, 774, 773, 773, 773, 772, 772, 772, 772, 772, 772, 773, 773
702, 702, 707, 711, 711, 715, 720, 720, 724, 730, 730, 736, 741, 741, 744, 747, 747, 750, 750, 752, 753, 753, 755, 756, 755, 755, 756, 756, 756, 756, 757, 0, 0, 0, 0, 0, 0, 0, 0, 0, 0, 0, 0, 0, 0, 0, 0, 0, 0, 550, 550, 550, 550, 550, 550, 550, 550, 550, 550, 550, 550, 550, 550, 551, 551, 551, 551, 551, 551, 551, 551, 551, 551, 551, 552, 552, 552, 552, 552, 552, 553, 553, 553, 553, 553, 553, 554, 554, 554, 554, 554, 554, 554, 554, 554, 554, 554, 554, 554, 554, 554, 553, 553, 553, 553, 553, 552, 552, 552, 552, 552, 552, 552, 552, 551, 551, 551, 552, 552, 552, 552, 552, 552, 552, 552, 552, 552, 552, 553, 553, 553, 553, 553, 553, 553, 553, 553, 553, 553, 553, 553, 553, 553, 553, 553, 553, 553, 553, 553, 553, 553, 553, 553, 553, 553, 552, 552, 552, 552, 552, 552, 552, 552, 552, 552, 552, 553, 553, 553, 553, 554, 554, 554, 554, 554, 555, 555, 556, 556, 556, 556, 556, 556, 556, 556, 556, 556, 556, 555, 555, 555, 555, 554, 554, 554, 554, 554, 554, 554, 554, 554, 554, 554, 554, 554, 555, 555, 555, 554, 554, 554, 554, 554, 555, 555, 555, 555, 555, 555, 555, 555, 555, 555, 556, 556, 556, 556, 556, 556, 556, 556, 556, 556, 556, 556, 556, 556, 556, 556, 556, 556, 556, 556, 556, 556, 556, 556, 556, 556, 556, 555, 555, 555, 555, 555, 554, 554, 554, 554, 554, 554, 554, 554, 554, 554, 554, 555, 555, 555, 555, 555, 555, 556, 555, 555, 555, 555, 555, 555, 555, 555, 555, 555, 556, 556, 556, 556, 556, 556, 556, 556, 556, 556, 556, 556, 556, 556, 556, 555, 555, 555, 555, 555, 555, 555, 555, 555, 556, 556, 556, 556, 556, 556, 557, 557, 557, 557, 557, 557, 557, 557, 557, 557, 557, 557, 556, 556, 556, 556, 556, 556, 556, 556, 556, 556, 556, 556, 557, 557, 557, 558, 558, 558, 558, 558, 558, 558, 558, 558, 558, 558, 558, 558, 558, 557, 557, 557, 557, 557, 557, 557, 557, 557, 557, 557, 557, 557, 557, 557, 557, 557, 556, 556, 556, 557, 557, 557, 557, 556, 556, 556, 556, 557, 557, 557, 557, 557, 557, 557, 557, 557, 557, 557, 556, 556, 556, 556, 556, 556, 556, 556, 556, 556, 556, 556, 556, 556, 556, 556, 556, 556, 556, 556, 556, 555, 555, 555, 555, 555, 555, 555, 555, 555, 555, 555, 556, 557, 557, 558, 559, 559, 560, 561, 561, 562, 562, 562, 563, 563, 563, 563, 563, 564, 564, 564, 564, 564, 564, 564, 564, 564, 564, 564, 564, 564, 563, 563, 563, 563, 563, 563, 564, 564, 564, 564, 564, 564, 564, 564, 564, 564, 564, 565, 565, 565, 565, 565, 566, 566, 566, 566, 566, 567, 567, 567, 567, 568, 568, 568, 568, 568, 568, 568, 568, 568, 568, 568, 568, 567, 567, 567, 567, 567, 566, 566, 566, 566, 566, 566, 566, 566, 566, 566, 566, 566, 566, 566, 566, 566, 566, 567, 567, 567, 568, 568, 568, 568, 568, 569, 570, 570, 570, 571, 571, 571, 571, 571, 572, 572, 571, 571, 571, 571, 571, 571, 571, 571, 570, 570, 570, 780, 780, 781, 780, 780, 780, 779, 779, 779, 778, 778, 778, 778, 778, 778, 778, 778, 777, 777, 777, 777, 777, 777, 777, 777, 777, 777, 777, 777, 777, 777, 777, 777, 776, 776, 776, 776, 776, 775, 775, 775, 774, 774, 774, 773, 773, 773, 772, 772, 772, 772, 772, 773, 773, 773
702, 702, 707, 711, 711, 715, 720, 720, 724, 730, 730, 736, 741, 741, 744, 747, 747, 750, 750, 752, 753, 753, 755, 755, 755, 755, 756, 756, 756, 756, 757, 0, 0, 0, 0, 0, 0, 0, 0, 0, 0, 0, 0, 0, 0, 0, 0, 550, 550, 550, 550, 550, 550, 550, 550, 550, 550, 550, 550, 550, 550, 551, 551, 551, 551, 551, 552, 552, 552, 552, 552, 552, 552, 552, 552, 552, 552, 553, 553, 553, 553, 553, 553, 553, 553, 554, 554, 554, 554, 554, 554, 554, 554, 554, 554, 554, 554, 554, 554, 554, 554, 554, 554, 553, 553, 553, 553, 553, 552, 552, 552, 552, 552, 552, 552, 552, 552, 552, 552, 552, 552, 552, 552, 552, 552, 552, 552, 552, 553, 553, 553, 553, 553, 553, 553, 553, 554, 554, 554, 553, 553, 553, 553, 553, 553, 553, 553, 553, 553, 553, 553, 553, 553, 553, 553, 552, 552, 552, 552, 552, 552, 552, 552, 553, 553, 553, 553, 553, 553, 554, 554, 554, 554, 554, 555, 555, 555, 556, 556, 556, 556, 556, 556, 556, 556, 556, 556, 556, 555, 555, 555, 555, 554, 554, 554, 554, 554, 554, 554, 554, 554, 554, 554, 554, 554, 555, 555, 555, 554, 554, 554, 554, 554, 555, 555, 555, 555, 555, 555, 555, 555, 555, 555, 556, 556, 556, 556, 556, 556, 556, 556, 556, 556, 556, 556, 556, 556, 556, 556, 556, 556, 556, 556, 556, 556, 556, 556, 556, 556, 556, 555, 555, 555, 555, 555, 554, 554, 554, 554, 554, 554, 554, 554, 554, 554, 554, 555, 555, 555, 555, 555, 555, 555, 555, 555, 555, 555, 555, 555, 555, 555, 555, 555, 555, 555, 556, 556, 556, 556, 556, 556, 556, 555, 555, 555, 555, 556, 556, 555, 555, 555, 555, 555, 555, 555, 555, 555, 556, 556, 556, 556, 556, 556, 557, 557, 557, 557, 557, 557, 557, 557, 557, 557, 557, 557, 556, 556, 556, 556, 556, 556, 556, 556, 556, 556, 556, 556, 557, 557, 557, 558, 558, 558, 558, 558, 558, 558, 558, 558, 558, 558, 558, 558, 558, 557, 557, 557, 557, 557, 557, 557, 557, 557, 557, 557, 557, 557, 557, 557, 557, 557, 556, 556, 556, 556, 556, 556, 556, 556, 556, 556, 556, 556, 557, 557, 557, 557, 557, 557, 557, 557, 557, 557, 556, 556, 556, 556, 556, 556, 556, 556, 556, 556, 556, 556, 556, 556, 556, 556, 556, 556, 556, 556, 556, 555, 555, 555, 555, 555, 555, 555, 555, 555, 556, 556, 556, 557, 557, 558, 559, 559, 560, 561, 561, 562, 562, 563, 563, 563, 563, 563, 563, 564, 564, 564, 564, 564, 564, 564, 564, 564, 564, 563, 563, 563, 563, 563, 563, 563, 563, 563, 563, 563, 564, 564, 564, 564, 564, 564, 564, 564, 564, 565, 565, 565, 565, 565, 566, 566, 566, 566, 566, 567, 567, 567, 567, 568, 568, 568, 568, 568, 568, 568, 568, 568, 568, 568, 568, 567, 567, 567, 567, 567, 566, 566, 566, 566, 566, 566, 566, 566, 566, 566, 566, 566, 566, 566, 566, 567, 567, 567, 567, 567, 568, 568, 568, 568, 568, 569, 570, 570, 570, 571, 571, 571, 571, 571, 572, 572, 571, 571, 571, 571, 571, 571, 571, 571, 571, 781, 780, 780, 780, 781, 780, 780, 780, 779, 779, 779, 778, 778, 778, 778, 778, 778, 778, 778, 777, 777, 777, 777, 777, 777, 777, 777, 777, 777, 777, 777, 777, 777, 777, 777, 777, 777, 777, 776, 776, 776, 775, 775, 774, 774, 774, 774, 774, 773, 772, 772, 772, 772, 772, 773, 773, 773
702, 702, 706, 710, 710, 715, 719, 719, 724, 730, 730, 736, 741, 741, 744, 747, 747, 750, 750, 752, 754, 754, 755, 755, 755, 755, 756, 756, 756, 756, 757, 0, 0, 0, 0, 0, 0, 0, 0, 0, 0, 0, 0, 0, 0, 0, 0, 550, 550, 550, 550, 550, 550, 550, 550, 550, 550, 550, 550, 551, 551, 551, 551, 551, 551, 551, 552, 552, 552, 552, 552, 552, 552, 552, 553, 553, 553, 553, 553, 553, 553, 553, 554, 554, 554, 554, 554, 554, 554, 554, 554, 554, 554, 554, 554, 554, 554, 554, 554, 554, 554, 554, 554, 553, 553, 553, 553, 553, 553, 552, 552, 552, 552, 552, 552, 552, 552, 552, 552, 552, 552, 552, 552, 552, 552, 552, 553, 553, 553, 553, 553, 553, 553, 553, 554, 554, 554, 554, 554, 554, 554, 553, 553, 553, 553, 553, 553, 553, 553, 553, 553, 553, 553, 553, 553, 552, 552, 552, 552, 552, 552, 552, 552, 553, 553, 553, 553, 553, 553, 554, 554, 554, 554, 554, 555, 555, 555, 556, 556, 556, 556, 556, 556, 556, 556, 556, 556, 556, 555, 555, 554, 554, 554, 554, 554, 554, 554, 554, 554, 554, 554, 554, 554, 554, 554, 555, 555, 555, 554, 554, 554, 554, 554, 555, 555, 555, 555, 555, 555, 555, 555, 555, 555, 555, 556, 556, 556, 556, 556, 556, 556, 556, 556, 556, 556, 556, 556, 556, 556, 556, 556, 556, 556, 556, 556, 556, 556, 555, 555, 555, 555, 555, 554, 554, 554, 554, 554, 554, 554, 554, 554, 554, 554, 554, 554, 554, 554, 555, 555, 555, 555, 555, 555, 555, 555, 555, 555, 555, 555, 555, 555, 555, 555, 555, 555, 555, 555, 555, 556, 556, 555, 555, 555, 555, 555, 555, 555, 555, 555, 555, 555, 555, 555, 555, 555, 555, 555, 556, 556, 556, 556, 556, 556, 557, 557, 557, 557, 557, 557, 557, 557, 557, 557, 556, 556, 556, 556, 556, 556, 556, 556, 556, 556, 556, 556, 556, 556, 557, 557, 557, 558, 558, 558, 558, 558, 558, 558, 558, 558, 558, 558, 558, 558, 558, 558, 558, 558, 558, 557, 557, 557, 557, 557, 557, 557, 557, 557, 557, 557, 557, 557, 556, 556, 556, 556, 556, 556, 556, 556, 556, 556, 556, 556, 557, 557, 557, 557, 557, 557, 557, 557, 557, 557, 556, 556, 556, 556, 556, 556, 556, 556, 556, 556, 556, 556, 556, 556, 556, 556, 556, 556, 556, 556, 556, 556, 556, 556, 555, 555, 555, 555, 556, 556, 556, 556, 556, 557, 557, 558, 560, 560, 560, 561, 561, 562, 562, 563, 563, 563, 564, 564, 564, 564, 564, 564, 564, 564, 564, 564, 564, 564, 564, 563, 563, 563, 563, 563, 563, 563, 563, 563, 563, 563, 564, 564, 564, 564, 564, 564, 564, 564, 564, 565, 565, 565, 565, 565, 566, 566, 566, 566, 566, 567, 567, 567, 567, 567, 567, 568, 568, 568, 568, 568, 568, 568, 568, 568, 567, 567, 567, 567, 567, 567, 566, 566, 566, 566, 566, 566, 566, 566, 566, 566, 566, 566, 566, 566, 566, 567, 567, 567, 567, 567, 568, 568, 568, 568, 568, 569, 570, 570, 570, 570, 570, 571, 571, 571, 572, 572, 571, 571, 571, 571, 571, 571, 571, 571, 571, 780, 780, 780, 780, 780, 780, 779, 779, 779, 778, 778, 778, 778, 778, 778, 778, 777, 777, 777, 777, 777, 777, 777, 777, 777, 777, 777, 777, 777, 777, 777, 777, 777, 777, 777, 777, 777, 777, 776, 776, 776, 775, 775, 774, 774, 774, 774, 774, 773, 773, 773, 773, 773, 773, 773, 774, 774
702, 702, 706, 710, 710, 715, 719, 719, 724, 730, 730, 736, 741, 741, 745, 747, 747, 749, 749, 751, 753, 753, 755, 755, 755, 755, 756, 756, 756, 756, 757, 0, 0, 0, 0, 0, 0, 0, 0, 0, 0, 0, 0, 0, 0, 0, 0, 550, 550, 550, 550, 550, 550, 550, 550, 550, 550, 550, 550, 551, 551, 551, 551, 551, 551, 551, 552, 552, 552, 552, 552, 552, 552, 552, 553, 553, 553, 553, 553, 553, 553, 553, 554, 554, 554, 554, 554, 554, 554, 554, 554, 554, 554, 554, 554, 554, 554, 554, 554, 554, 554, 554, 554, 553, 553, 553, 553, 553, 553, 552, 552, 552, 552, 552, 552, 552, 552, 552, 552, 552, 552, 552, 552, 552, 552, 552, 553, 553, 553, 553, 553, 553, 553, 553, 554, 554, 554, 554, 554, 554, 554, 553, 553, 553, 553, 553, 553, 553, 553, 553, 553, 553, 553, 553, 553, 553, 553, 553, 553, 553, 553, 553, 553, 553, 553, 553, 553, 553, 553, 554, 554, 554, 554, 554, 555, 555, 555, 556, 556, 556, 556, 556, 556, 556, 556, 556, 556, 556, 555, 555, 554, 554, 554, 554, 554, 554, 554, 554, 554, 554, 554, 554, 554, 554, 554, 554, 554, 555, 554, 554, 554, 554, 554, 555, 555, 555, 555, 554, 554, 554, 554, 554, 554, 555, 555, 555, 555, 555, 555, 555, 555, 556, 556, 556, 556, 556, 556, 556, 556, 556, 556, 556, 556, 556, 556, 556, 556, 555, 555, 555, 555, 555, 554, 554, 554, 554, 554, 554, 554, 554, 554, 554, 554, 554, 554, 554, 554, 555, 555, 555, 555, 555, 555, 555, 555, 555, 555, 555, 555, 555, 555, 555, 555, 555, 555, 555, 555, 555, 556, 556, 555, 555, 555, 555, 555, 555, 555, 555, 555, 555, 555, 555, 555, 555, 555, 556, 556, 556, 556, 556, 556, 556, 556, 557, 557, 557, 557, 557, 557, 557, 557, 557, 557, 556, 556, 556, 556, 556, 556, 556, 556, 556, 556, 556, 556, 556, 556, 557, 557, 557, 558, 558, 558, 558, 558, 558, 558, 558, 558, 558, 558, 558, 558, 558, 558, 558, 558, 558, 557, 557, 557, 557, 557, 557, 557, 557, 557, 557, 557, 557, 556, 556, 556, 556, 556, 556, 556, 556, 556, 556, 556, 556, 556, 557, 557, 557, 557, 557, 557, 557, 557, 557, 557, 556, 556, 556, 556, 556, 556, 556, 556, 556, 556, 556, 556, 556, 556, 556, 556, 556, 556, 556, 556, 556, 556, 556, 556, 555, 555, 555, 555, 556, 556, 556, 556, 556, 557, 557, 558, 560, 560, 560, 561, 561, 562, 562, 563, 563, 563, 563, 564, 563, 563, 563, 564, 564, 563, 563, 563, 563, 563, 563, 563, 563, 563, 563, 563, 563, 563, 563, 563, 563, 563, 563, 563, 563, 564, 564, 564, 564, 564, 564, 565, 565, 565, 565, 565, 565, 565, 565, 566, 566, 566, 566, 566, 566, 567, 567, 567, 567, 567, 567, 567, 567, 567, 567, 567, 567, 567, 567, 567, 567, 567, 566, 566, 566, 566, 566, 566, 566, 566, 566, 566, 566, 566, 566, 566, 566, 567, 567, 567, 568, 568, 568, 568, 568, 568, 568, 569, 570, 570, 570, 570, 570, 571, 571, 571, 572, 572, 571, 571, 571, 571, 571, 571, 571, 571, 571, 780, 780, 780, 780, 780, 780, 779, 779, 779, 778, 778, 778, 778, 778, 778, 778, 777, 777, 777, 777, 777, 777, 777, 777, 777, 777, 777, 777, 777, 777, 777, 777, 777, 777, 777, 777, 777, 777, 776, 776, 776, 776, 776, 775, 775, 774, 774, 774, 774, 774, 774, 774, 774, 774, 774, 774, 774
701, 701, 705, 709, 709, 714, 719, 719, 724, 729, 729, 735, 740, 740, 744, 746, 746, 749, 749, 751, 753, 753, 754, 755, 755, 755, 755, 755, 756, 756, 757, 0, 0, 0, 0, 0, 0, 0, 0, 0, 0, 0, 0, 0, 0, 0, 0, 0, 0, 550, 550, 550, 550, 550, 550, 550, 550, 550, 550, 551, 551, 551, 551, 551, 552, 552, 553, 553, 553, 553, 553, 553, 553, 553, 553, 553, 553, 554, 554, 554, 554, 554, 554, 554, 554, 554, 554, 554, 554, 554, 554, 554, 554, 554, 554, 554, 554, 554, 554, 554, 554, 554, 554, 554, 553, 553, 553, 553, 553, 553, 553, 552, 552, 552, 552, 552, 552, 552, 552, 552, 552, 552, 552, 553, 553, 553, 553, 553, 553, 553, 553, 554, 554, 554, 554, 554, 554, 554, 554, 554, 554, 554, 554, 554, 554, 554, 554, 553, 553, 553, 553, 553, 553, 553, 553, 553, 553, 553, 553, 553, 553, 553, 553, 553, 553, 553, 554, 554, 554, 554, 554, 554, 555, 555, 555, 555, 555, 556, 556, 556, 556, 556, 556, 556, 556, 556, 556, 556, 555, 555, 554, 554, 554, 554, 554, 554, 554, 554, 554, 554, 554, 554, 554, 554, 554, 554, 554, 555, 554, 554, 554, 554, 554, 555, 555, 555, 555, 554, 554, 554, 554, 554, 554, 555, 555, 555, 555, 555, 555, 555, 555, 555, 556, 556, 556, 556, 556, 556, 556, 555, 555, 555, 555, 555, 555, 555, 555, 555, 555, 554, 554, 554, 554, 554, 554, 553, 553, 553, 553, 553, 553, 553, 553, 554, 554, 554, 554, 554, 554, 555, 555, 555, 555, 555, 555, 555, 555, 555, 555, 555, 555, 555, 555, 555, 555, 555, 555, 555, 555, 555, 555, 555, 555, 555, 555, 555, 555, 555, 555, 555, 555, 555, 555, 555, 555, 556, 556, 556, 556, 556, 556, 556, 556, 557, 557, 557, 557, 557, 557, 557, 557, 557, 557, 556, 556, 556, 556, 556, 556, 556, 556, 556, 556, 556, 556, 556, 556, 557, 557, 557, 557, 557, 558, 558, 558, 558, 558, 558, 558, 558, 558, 558, 558, 558, 558, 558, 558, 558, 558, 558, 557, 557, 557, 557, 557, 557, 557, 557, 557, 557, 556, 556, 556, 556, 556, 556, 556, 556, 556, 556, 556, 556, 556, 557, 557, 557, 557, 557, 557, 557, 557, 557, 557, 557, 557, 556, 556, 556, 556, 556, 556, 556, 556, 556, 556, 556, 556, 556, 556, 556, 556, 556, 556, 556, 556, 556, 556, 556, 556, 556, 556, 556, 556, 556, 556, 557, 558, 558, 558, 560, 560, 560, 561, 561, 562, 562, 563, 563, 563, 563, 564, 563, 563, 563, 564, 564, 563, 563, 563, 563, 563, 563, 563, 563, 563, 563, 563, 563, 563, 563, 563, 563, 563, 563, 563, 563, 564, 564, 564, 564, 564, 564, 565, 565, 565, 565, 565, 565, 565, 565, 566, 566, 566, 566, 566, 566, 567, 567, 567, 567, 567, 567, 567, 567, 567, 567, 567, 567, 567, 567, 567, 567, 567, 566, 566, 566, 566, 566, 566, 566, 566, 566, 566, 566, 566, 566, 566, 566, 567, 567, 567, 568, 568, 568, 568, 568, 568, 568, 569, 570, 570, 570, 570, 570, 571, 571, 571, 572, 572, 571, 571, 571, 571, 571, 571, 571, 571, 571, 780, 780, 780, 780, 780, 780, 779, 779, 779, 778, 778, 778, 778, 778, 778, 778, 777, 777, 777, 777, 777, 776, 776, 776, 776, 776, 777, 777, 777, 777, 777, 777, 777, 777, 777, 777, 777, 777, 776, 776, 776, 776, 776, 775, 775, 774, 774, 774, 774, 774, 774, 774, 774, 774, 774, 774, 774
701, 701, 705, 709, 709, 714, 719, 719, 724, 729, 729, 735, 740, 740, 744, 746, 746, 749, 749, 751, 753, 753, 754, 755, 755, 755, 755, 755, 756, 756, 757, 0, 0, 0, 0, 0, 0, 0, 0, 0, 0, 0, 0, 0, 0, 0, 0, 0, 0, 550, 550, 550, 550, 550, 550, 550, 550, 550, 551, 551, 551, 551, 551, 552, 552, 552, 553, 553, 553, 553, 553, 553, 554, 554, 554, 554, 554, 554, 554, 554, 554, 554, 554, 554, 554, 554, 554, 554, 554, 554, 554, 554, 554, 554, 555, 555, 555, 555, 554, 554, 554, 554, 554, 554, 554, 554, 553, 553, 553, 553, 553, 552, 552, 552, 552, 552, 552, 552, 552, 552, 552, 552, 552, 552, 552, 552, 553, 553, 553, 553, 553, 553, 554, 554, 554, 554, 554, 554, 554, 554, 554, 554, 554, 554, 554, 554, 554, 553, 553, 553, 553, 553, 553, 553, 553, 553, 553, 553, 553, 553, 553, 553, 553, 553, 553, 553, 554, 554, 554, 554, 554, 554, 554, 554, 555, 555, 555, 555, 556, 556, 556, 556, 556, 556, 556, 555, 555, 555, 555, 555, 554, 554, 554, 554, 554, 554, 554, 554, 553, 553, 553, 553, 554, 554, 554, 554, 554, 554, 554, 554, 554, 554, 554, 554, 554, 554, 554, 554, 554, 554, 554, 554, 554, 555, 555, 555, 555, 555, 555, 555, 555, 555, 555, 555, 555, 555, 555, 555, 555, 555, 555, 555, 555, 555, 554, 554, 554, 554, 554, 554, 554, 554, 554, 554, 553, 553, 553, 553, 553, 553, 553, 553, 553, 554, 554, 554, 554, 554, 554, 555, 555, 555, 555, 555, 555, 555, 555, 555, 555, 555, 555, 555, 555, 555, 555, 555, 555, 555, 555, 555, 555, 555, 555, 555, 555, 555, 555, 555, 555, 555, 555, 555, 555, 555, 555, 556, 556, 556, 556, 556, 556, 556, 556, 557, 557, 557, 557, 557, 557, 557, 557, 557, 557, 556, 556, 556, 556, 556, 556, 556, 556, 556, 556, 556, 556, 556, 556, 557, 557, 557, 557, 557, 558, 558, 558, 558, 558, 558, 558, 558, 558, 558, 558, 558, 558, 558, 558, 558, 558, 558, 557, 557, 557, 557, 557, 557, 557, 557, 557, 557, 556, 556, 556, 556, 556, 556, 556, 556, 556, 556, 556, 556, 556, 557, 557, 557, 557, 557, 557, 557, 557, 557, 557, 557, 557, 557, 557, 557, 556, 556, 556, 556, 556, 556, 556, 556, 556, 557, 556, 556, 556, 556, 556, 556, 556, 556, 556, 556, 556, 556, 556, 556, 556, 556, 556, 557, 558, 558, 559, 560, 560, 560, 561, 561, 562, 562, 563, 563, 563, 563, 563, 563, 563, 563, 563, 563, 563, 563, 563, 563, 563, 563, 563, 563, 562, 562, 562, 562, 562, 563, 563, 563, 563, 563, 563, 563, 564, 564, 564, 564, 564, 564, 565, 564, 564, 565, 565, 565, 565, 565, 565, 565, 566, 566, 566, 566, 566, 566, 566, 566, 567, 567, 567, 567, 567, 567, 567, 567, 567, 567, 567, 566, 566, 566, 566, 566, 566, 566, 566, 566, 566, 566, 566, 566, 566, 566, 566, 566, 567, 567, 567, 568, 568, 568, 568, 568, 568, 568, 569, 569, 569, 570, 570, 570, 570, 570, 571, 571, 571, 571, 571, 571, 571, 571, 571, 571, 571, 570, 570, 570, 779, 779, 779, 779, 779, 779, 779, 778, 778, 778, 778, 778, 778, 778, 777, 777, 777, 776, 776, 776, 776, 776, 776, 776, 776, 776, 776, 776, 777, 777, 777, 777, 777, 777, 777, 777, 777, 777, 776, 776, 776, 775, 775, 775, 774, 774, 774, 774, 774, 774, 774, 774, 774, 774, 774
700, 700, 705, 709, 709, 714, 718, 718, 722, 728, 728, 734, 739, 739, 744, 746, 746, 748, 748, 750, 752, 752, 753, 754, 754, 754, 755, 755, 755, 755, 756, 0, 0, 0, 0, 0, 0, 0, 0, 0, 0, 0, 0, 0, 0, 0, 0, 0, 0, 550, 550, 550, 550, 550, 550, 550, 550, 550, 551, 551, 551, 551, 551, 552, 552, 552, 553, 553, 553, 553, 553, 553, 554, 554, 554, 554, 554, 554, 554, 554, 554, 554, 554, 554, 554, 554, 554, 554, 554, 554, 554, 554, 554, 554, 555, 555, 555, 555, 554, 554, 554, 554, 554, 554, 554, 554, 553, 553, 553, 553, 553, 553, 552, 552, 552, 552, 552, 552, 552, 552, 552, 552, 552, 552, 552, 552, 553, 553, 553, 553, 553, 553, 554, 554, 554, 554, 554, 554, 554, 554, 554, 554, 554, 554, 554, 554, 554, 554, 554, 554, 553, 553, 553, 553, 553, 553, 553, 553, 553, 553, 553, 553, 553, 553, 554, 554, 554, 554, 554, 554, 554, 554, 554, 554, 554, 555, 555, 555, 555, 555, 556, 556, 556, 556, 555, 555, 555, 555, 554, 554, 554, 554, 554, 554, 554, 554, 554, 554, 553, 553, 553, 553, 554, 554, 554, 554, 554, 554, 554, 554, 554, 554, 554, 554, 554, 554, 554, 554, 554, 554, 554, 554, 554, 555, 555, 555, 555, 555, 555, 555, 555, 555, 555, 555, 555, 555, 555, 555, 555, 555, 555, 555, 555, 555, 554, 554, 554, 554, 554, 554, 554, 554, 554, 554, 553, 553, 553, 553, 553, 553, 553, 553, 553, 554, 554, 554, 554, 554, 554, 555, 555, 555, 555, 555, 555, 555, 555, 555, 555, 555, 555, 555, 555, 555, 555, 555, 555, 555, 555, 555, 555, 555, 555, 555, 555, 555, 555, 555, 555, 555, 555, 555, 555, 555, 556, 556, 556, 556, 556, 556, 556, 556, 557, 557, 557, 557, 557, 557, 557, 557, 557, 557, 557, 556, 556, 556, 556, 556, 556, 556, 556, 556, 556, 556, 556, 556, 556, 556, 556, 557, 557, 557, 557, 557, 557, 558, 558, 558, 558, 558, 558, 558, 558, 558, 558, 558, 558, 558, 557, 557, 557, 557, 557, 556, 556, 556, 556, 556, 556, 556, 556, 556, 556, 556, 556, 556, 556, 556, 556, 556, 556, 556, 556, 557, 557, 557, 557, 557, 557, 557, 557, 557, 557, 557, 557, 557, 557, 557, 556, 556, 556, 556, 556, 556, 556, 556, 556, 557, 556, 556, 556, 556, 556, 556, 556, 556, 556, 556, 556, 556, 556, 556, 556, 556, 556, 557, 558, 558, 559, 560, 560, 560, 561, 561, 562, 562, 562, 563, 563, 563, 563, 563, 563, 562, 562, 562, 562, 562, 562, 562, 562, 562, 562, 562, 562, 562, 562, 562, 562, 562, 562, 563, 563, 563, 563, 563, 563, 564, 564, 564, 564, 564, 564, 564, 564, 564, 564, 565, 565, 565, 565, 565, 565, 566, 566, 566, 566, 566, 566, 566, 566, 566, 566, 566, 566, 566, 567, 567, 567, 567, 567, 566, 566, 566, 566, 566, 566, 566, 566, 566, 566, 566, 566, 566, 566, 566, 566, 566, 567, 567, 567, 568, 568, 568, 568, 568, 568, 568, 569, 569, 569, 570, 570, 570, 570, 570, 571, 571, 571, 571, 571, 571, 571, 571, 571, 571, 571, 570, 570, 570, 779, 779, 779, 779, 779, 779, 779, 778, 778, 778, 778, 778, 778, 778, 777, 777, 777, 776, 776, 776, 776, 776, 776, 776, 776, 776, 776, 776, 777, 777, 777, 777, 777, 777, 777, 777, 777, 777, 777, 776, 776, 776, 775, 775, 775, 775, 775, 775, 775, 775, 775, 775, 775, 775, 775
699, 699, 704, 708, 708, 713, 717, 717, 722, 727, 727, 732, 738, 738, 743, 744, 744, 746, 746, 749, 752, 752, 753, 753, 753, 753, 754, 754, 754, 754, 756, 0, 0, 0, 0, 0, 0, 0, 0, 0, 0, 0, 0, 0, 0, 0, 0, 0, 0, 551, 550, 550, 550, 550, 550, 550, 551, 551, 551, 551, 551, 552, 552, 552, 552, 552, 553, 554, 554, 554, 554, 554, 554, 554, 554, 554, 554, 554, 554, 554, 554, 554, 554, 554, 554, 554, 554, 554, 554, 555, 555, 555, 555, 555, 555, 555, 555, 555, 555, 555, 555, 554, 554, 554, 554, 554, 553, 553, 553, 553, 553, 553, 552, 552, 552, 552, 552, 552, 552, 552, 552, 552, 552, 552, 552, 552, 553, 553, 553, 553, 553, 554, 554, 554, 554, 554, 554, 554, 554, 555, 555, 555, 554, 554, 554, 554, 554, 554, 554, 554, 554, 554, 554, 554, 554, 554, 554, 553, 553, 553, 553, 553, 553, 553, 554, 554, 554, 554, 554, 554, 554, 554, 554, 554, 554, 555, 555, 555, 555, 555, 556, 556, 556, 556, 555, 555, 555, 555, 554, 554, 554, 554, 554, 554, 554, 553, 553, 553, 553, 553, 553, 553, 553, 553, 554, 554, 554, 554, 554, 554, 554, 554, 554, 554, 554, 554, 554, 554, 554, 554, 554, 554, 554, 554, 554, 554, 554, 554, 554, 554, 554, 554, 554, 554, 554, 554, 554, 554, 554, 554, 554, 554, 554, 554, 554, 554, 554, 554, 554, 553, 553, 553, 553, 553, 553, 553, 553, 553, 553, 553, 553, 553, 553, 553, 554, 554, 554, 554, 554, 555, 555, 555, 555, 555, 555, 555, 555, 555, 555, 555, 555, 555, 555, 555, 555, 555, 555, 555, 555, 555, 555, 555, 555, 555, 555, 555, 555, 555, 555, 555, 555, 555, 555, 555, 556, 556, 556, 556, 556, 556, 556, 556, 557, 557, 557, 557, 557, 557, 557, 557, 557, 557, 557, 556, 556, 556, 556, 556, 556, 556, 556, 556, 556, 556, 556, 555, 555, 556, 556, 556, 557, 557, 557, 557, 557, 557, 557, 558, 558, 558, 558, 558, 558, 558, 558, 558, 558, 558, 557, 557, 557, 557, 557, 556, 556, 556, 556, 556, 556, 556, 556, 556, 556, 556, 556, 556, 556, 556, 556, 556, 556, 556, 556, 557, 557, 557, 557, 557, 557, 557, 557, 557, 557, 557, 557, 557, 557, 557, 557, 557, 557, 557, 557, 556, 556, 556, 556, 557, 557, 556, 556, 556, 556, 556, 556, 556, 556, 556, 556, 556, 556, 556, 556, 556, 556, 557, 558, 558, 559, 560, 560, 560, 561, 561, 562, 562, 562, 563, 563, 563, 563, 563, 563, 562, 562, 562, 562, 562, 562, 562, 562, 562, 562, 562, 562, 562, 562, 562, 562, 562, 562, 563, 563, 563, 563, 563, 563, 564, 564, 564, 564, 564, 564, 564, 564, 564, 564, 565, 565, 565, 565, 565, 565, 566, 566, 566, 566, 566, 566, 566, 566, 566, 566, 566, 566, 566, 567, 567, 567, 567, 567, 566, 566, 566, 566, 566, 566, 566, 566, 566, 566, 566, 566, 566, 566, 566, 566, 567, 567, 567, 568, 568, 568, 568, 568, 568, 568, 568, 569, 569, 569, 570, 570, 570, 570, 570, 570, 571, 571, 571, 571, 571, 571, 571, 571, 571, 571, 570, 570, 570, 778, 777, 777, 777, 778, 779, 778, 778, 778, 778, 778, 778, 777, 777, 777, 777, 777, 776, 776, 776, 776, 776, 776, 776, 776, 776, 776, 776, 777, 777, 777, 777, 777, 777, 777, 777, 777, 777, 777, 776, 776, 776, 775, 775, 775, 775, 775, 775, 775, 775, 775, 775, 775, 775, 775
699, 699, 704, 708, 708, 713, 717, 717, 722, 727, 727, 732, 738, 738, 743, 744, 744, 746, 746, 749, 752, 752, 753, 753, 753, 753, 754, 754, 754, 754, 0, 0, 0, 0, 0, 0, 0, 0, 0, 0, 0, 0, 0, 0, 0, 0, 0, 0, 0, 551, 550, 550, 550, 550, 550, 550, 551, 551, 551, 551, 551, 552, 552, 552, 552, 552, 553, 554, 554, 554, 554, 554, 554, 554, 554, 554, 554, 554, 554, 554, 554, 554, 554, 554, 554, 554, 554, 554, 554, 555, 555, 555, 555, 555, 555, 555, 555, 555, 555, 555, 555, 554, 554, 554, 554, 554, 553, 553, 553, 553, 553, 553, 552, 552, 552, 552, 552, 552, 552, 552, 552, 552, 552, 552, 552, 552, 553, 553, 553, 553, 553, 554, 554, 554, 554, 554, 554, 554, 554, 555, 555, 555, 554, 554, 554, 554, 554, 554, 554, 554, 554, 554, 554, 554, 554, 554, 554, 553, 553, 553, 553, 553, 553, 553, 553, 553, 554, 554, 554, 554, 554, 554, 554, 554, 554, 554, 554, 555, 555, 555, 555, 555, 555, 555, 555, 555, 555, 554, 554, 554, 554, 554, 553, 553, 553, 553, 553, 553, 553, 553, 553, 553, 553, 553, 553, 554, 554, 554, 554, 554, 554, 554, 554, 554, 554, 554, 554, 554, 554, 554, 554, 554, 554, 554, 554, 554, 554, 554, 554, 554, 554, 554, 554, 554, 554, 554, 554, 554, 554, 554, 554, 554, 553, 553, 553, 553, 553, 553, 553, 553, 553, 553, 552, 552, 552, 552, 553, 553, 553, 553, 553, 553, 553, 553, 554, 554, 554, 554, 554, 555, 555, 555, 555, 555, 556, 556, 556, 555, 555, 555, 555, 555, 555, 555, 555, 555, 555, 555, 555, 555, 555, 555, 555, 555, 555, 555, 556, 556, 556, 556, 556, 556, 556, 556, 556, 556, 556, 556, 556, 556, 557, 557, 557, 557, 557, 557, 557, 557, 557, 557, 557, 557, 557, 556, 556, 556, 556, 556, 556, 556, 556, 556, 556, 556, 556, 555, 555, 556, 556, 556, 557, 557, 557, 557, 557, 557, 557, 558, 558, 558, 558, 558, 558, 558, 558, 558, 558, 558, 557, 557, 557, 557, 557, 556, 556, 556, 556, 556, 556, 556, 556, 556, 556, 556, 556, 556, 556, 556, 556, 556, 556, 556, 556, 557, 557, 557, 557, 557, 557, 557, 557, 557, 557, 557, 557, 557, 557, 557, 557, 557, 557, 557, 557, 556, 556, 556, 556, 557, 557, 556, 556, 556, 556, 556, 556, 556, 556, 556, 556, 556, 556, 556, 556, 556, 556, 557, 558, 558, 558, 559, 559, 560, 560, 560, 561, 561, 561, 562, 562, 562, 562, 562, 562, 562, 561, 561, 561, 561, 561, 561, 561, 561, 561, 561, 561, 562, 562, 562, 562, 562, 562, 563, 563, 563, 563, 563, 563, 564, 564, 564, 564, 564, 564, 564, 564, 564, 564, 565, 565, 565, 565, 565, 565, 566, 566, 566, 566, 566, 566, 566, 566, 566, 566, 566, 566, 566, 566, 566, 566, 566, 566, 566, 566, 566, 566, 566, 566, 566, 566, 566, 566, 566, 566, 566, 566, 566, 566, 567, 567, 567, 568, 568, 568, 568, 568, 568, 569, 569, 569, 569, 569, 569, 570, 570, 570, 570, 570, 571, 571, 571, 571, 570, 570, 570, 570, 570, 570, 571, 776, 777, 777, 777, 777, 777, 778, 778, 778, 778, 778, 778, 778, 777, 777, 777, 777, 777, 777, 777, 777, 776, 776, 776, 776, 776, 776, 776, 776, 776, 776, 777, 777, 777, 777, 777, 777, 777, 777, 777, 777, 777, 777, 776, 776, 776, 776, 776, 776, 776, 776, 776, 776, 776, 776, 776, 776
698, 698, 703, 707, 707, 712, 716, 716, 721, 726, 726, 731, 737, 737, 742, 744, 744, 745, 745, 748, 751, 751, 753, 753, 753, 753, 753, 753, 753, 753, 754, 0, 0, 0, 0, 0, 0, 0, 0, 0, 0, 0, 0, 0, 0, 0, 0, 0, 0, 551, 550, 550, 550, 550, 550, 550, 551, 551, 551, 551, 551, 552, 552, 552, 552, 552, 553, 554, 554, 554, 554, 554, 554, 554, 554, 554, 554, 554, 554, 554, 554, 554, 554, 554, 554, 554, 554, 554, 554, 554, 554, 555, 555, 555, 555, 555, 555, 555, 555, 555, 555, 554, 554, 554, 554, 554, 554, 553, 553, 553, 553, 553, 553, 553, 552, 552, 552, 552, 552, 552, 552, 552, 552, 552, 552, 552, 553, 553, 553, 553, 553, 553, 554, 554, 554, 554, 554, 555, 555, 555, 555, 555, 555, 555, 555, 555, 555, 554, 554, 554, 554, 554, 554, 554, 554, 554, 554, 554, 553, 553, 553, 553, 553, 553, 553, 553, 554, 554, 554, 554, 554, 554, 554, 554, 554, 554, 554, 555, 555, 555, 555, 555, 555, 555, 555, 555, 555, 554, 554, 554, 554, 554, 553, 553, 553, 553, 553, 553, 553, 553, 553, 553, 553, 553, 553, 554, 554, 554, 554, 554, 554, 554, 554, 554, 554, 554, 554, 554, 554, 554, 554, 554, 554, 554, 554, 554, 554, 554, 554, 554, 554, 554, 554, 554, 554, 554, 554, 554, 554, 554, 554, 554, 553, 553, 553, 553, 553, 553, 553, 553, 553, 553, 552, 552, 552, 552, 553, 553, 553, 553, 553, 553, 553, 553, 554, 554, 554, 554, 554, 555, 555, 555, 556, 556, 556, 556, 556, 555, 555, 555, 555, 555, 555, 555, 555, 555, 555, 555, 555, 555, 555, 555, 555, 555, 555, 555, 556, 556, 556, 556, 556, 556, 556, 556, 556, 556, 556, 556, 556, 556, 557, 557, 557, 557, 557, 557, 557, 557, 557, 557, 557, 557, 557, 556, 556, 556, 556, 556, 556, 556, 556, 556, 556, 556, 556, 555, 555, 556, 556, 556, 556, 556, 556, 557, 557, 557, 557, 557, 558, 557, 557, 557, 557, 557, 557, 557, 557, 557, 557, 557, 557, 557, 557, 556, 556, 556, 556, 556, 556, 556, 556, 556, 556, 556, 556, 556, 556, 556, 556, 556, 556, 556, 556, 557, 557, 557, 557, 557, 557, 557, 557, 557, 557, 557, 557, 557, 557, 557, 557, 557, 557, 557, 557, 557, 557, 557, 557, 557, 557, 557, 557, 557, 557, 557, 557, 557, 556, 556, 556, 556, 556, 556, 556, 556, 556, 557, 557, 557, 558, 558, 558, 559, 560, 560, 560, 560, 561, 561, 561, 561, 561, 561, 561, 561, 561, 561, 561, 560, 560, 560, 560, 560, 561, 561, 561, 561, 561, 561, 562, 562, 562, 562, 562, 563, 563, 563, 563, 564, 564, 564, 564, 564, 564, 564, 564, 565, 565, 565, 565, 565, 565, 565, 565, 565, 565, 565, 565, 565, 566, 566, 566, 566, 566, 566, 566, 566, 566, 566, 566, 566, 566, 566, 566, 566, 566, 566, 566, 566, 566, 566, 566, 566, 567, 567, 567, 567, 567, 567, 568, 568, 568, 569, 569, 569, 568, 568, 569, 569, 569, 569, 569, 569, 570, 570, 570, 570, 570, 571, 571, 571, 571, 570, 570, 570, 570, 570, 570, 571, 776, 777, 777, 777, 777, 777, 778, 778, 778, 778, 778, 778, 778, 777, 777, 777, 777, 777, 777, 777, 777, 776, 776, 776, 776, 776, 776, 776, 776, 776, 776, 777, 777, 777, 777, 777, 777, 778, 778, 778, 778, 777, 777, 777, 777, 777, 777, 777, 777, 777, 777, 777, 777, 778, 778, 778, 777
698, 698, 702, 706, 706, 711, 716, 716, 720, 725, 725, 731, 736, 736, 741, 744, 744, 745, 745, 747, 750, 750, 752, 753, 753, 753, 753, 753, 753, 753, 754, 0, 0, 0, 0, 0, 0, 0, 0, 0, 0, 0, 0, 0, 0, 0, 0, 0, 0, 0, 550, 550, 550, 550, 550, 551, 551, 551, 551, 551, 551, 552, 552, 552, 552, 552, 553, 554, 554, 554, 554, 554, 554, 554, 554, 554, 554, 554, 554, 554, 554, 554, 554, 554, 554, 554, 554, 554, 554, 554, 554, 555, 555, 555, 555, 555, 555, 555, 555, 555, 555, 555, 555, 554, 554, 554, 554, 554, 554, 553, 553, 553, 553, 553, 552, 552, 552, 552, 552, 552, 552, 552, 552, 552, 552, 552, 553, 553, 553, 553, 553, 553, 554, 554, 554, 554, 554, 555, 555, 555, 555, 555, 555, 555, 555, 555, 555, 555, 555, 555, 554, 554, 554, 554, 554, 554, 554, 554, 553, 553, 553, 553, 553, 553, 553, 553, 553, 553, 553, 553, 553, 553, 554, 554, 554, 554, 554, 554, 554, 554, 555, 555, 555, 555, 555, 554, 554, 554, 554, 554, 554, 554, 553, 553, 553, 553, 553, 553, 553, 553, 553, 553, 553, 553, 553, 553, 553, 554, 554, 554, 554, 554, 554, 554, 554, 554, 554, 554, 554, 554, 554, 554, 554, 553, 553, 553, 553, 553, 553, 553, 553, 553, 553, 553, 553, 553, 553, 553, 553, 553, 553, 553, 553, 553, 553, 553, 552, 552, 552, 552, 552, 552, 552, 552, 552, 552, 552, 552, 553, 553, 553, 553, 553, 553, 554, 554, 554, 554, 554, 555, 555, 555, 556, 556, 556, 556, 556, 556, 556, 556, 556, 556, 556, 556, 556, 556, 556, 556, 556, 556, 556, 556, 556, 556, 556, 556, 556, 556, 556, 556, 556, 556, 556, 556, 556, 556, 556, 556, 556, 556, 557, 557, 557, 557, 557, 557, 557, 557, 557, 557, 557, 557, 556, 556, 556, 556, 556, 556, 556, 556, 556, 556, 556, 555, 555, 555, 555, 556, 556, 556, 556, 556, 556, 556, 556, 557, 557, 557, 557, 557, 557, 557, 557, 557, 557, 557, 557, 557, 557, 557, 557, 557, 556, 556, 556, 556, 556, 556, 556, 556, 556, 556, 556, 556, 556, 556, 556, 556, 556, 556, 556, 556, 557, 557, 557, 557, 557, 557, 558, 558, 558, 558, 557, 557, 557, 557, 557, 557, 557, 557, 557, 557, 557, 557, 557, 557, 557, 557, 557, 557, 557, 557, 557, 557, 557, 557, 557, 557, 557, 556, 556, 556, 556, 557, 557, 557, 557, 557, 558, 558, 558, 559, 560, 560, 560, 560, 561, 561, 561, 561, 561, 561, 561, 561, 561, 561, 561, 560, 560, 560, 560, 560, 561, 561, 561, 561, 561, 561, 562, 562, 562, 562, 562, 563, 563, 563, 563, 564, 564, 564, 564, 564, 564, 564, 564, 565, 565, 565, 565, 565, 565, 565, 565, 565, 565, 565, 565, 565, 565, 565, 565, 566, 566, 566, 566, 566, 566, 566, 566, 566, 566, 566, 566, 566, 566, 566, 566, 566, 566, 566, 566, 566, 567, 567, 567, 567, 567, 567, 568, 568, 568, 569, 568, 568, 568, 568, 569, 569, 569, 569, 569, 569, 569, 569, 569, 569, 570, 570, 570, 570, 570, 570, 570, 570, 570, 570, 570, 570, 775, 776, 776, 776, 776, 776, 777, 777, 777, 777, 777, 777, 777, 777, 777, 777, 777, 777, 777, 777, 777, 776, 776, 776, 776, 776, 776, 776, 776, 776, 776, 777, 777, 777, 777, 777, 777, 778, 778, 778, 778, 777, 777, 777, 777, 777, 777, 777, 777, 777, 777, 777, 777, 778, 778, 778, 778
698, 698, 702, 706, 706, 711, 716, 716, 720, 725, 725, 731, 736, 736, 741, 744, 744, 745, 745, 747, 750, 750, 752, 753, 753, 753, 753, 753, 753, 753, 753, 753, 753, 0, 0, 0, 0, 0, 0, 0, 0, 0, 0, 0, 0, 0, 0, 0, 0, 0, 550, 550, 550, 550, 550, 551, 551, 551, 551, 551, 551, 552, 552, 552, 552, 552, 553, 554, 554, 554, 554, 553, 553, 553, 553, 554, 554, 554, 554, 554, 554, 554, 554, 554, 554, 554, 554, 554, 554, 554, 554, 554, 554, 555, 555, 555, 555, 555, 555, 555, 555, 555, 555, 554, 554, 554, 554, 553, 553, 553, 553, 553, 553, 553, 552, 552, 552, 552, 552, 552, 552, 552, 552, 552, 552, 552, 552, 552, 553, 553, 553, 553, 554, 554, 554, 554, 554, 555, 555, 555, 555, 555, 555, 555, 555, 555, 555, 555, 555, 555, 554, 554, 554, 554, 554, 554, 554, 554, 553, 553, 553, 553, 553, 553, 553, 553, 553, 553, 553, 553, 553, 553, 553, 553, 553, 554, 554, 554, 554, 554, 554, 554, 554, 554, 554, 554, 554, 554, 554, 554, 553, 553, 553, 553, 553, 553, 552, 552, 552, 552, 552, 552, 552, 552, 553, 553, 553, 553, 553, 553, 553, 553, 554, 554, 554, 554, 554, 554, 554, 554, 554, 554, 553, 553, 553, 553, 553, 552, 552, 552, 552, 552, 552, 552, 552, 552, 552, 552, 552, 552, 552, 552, 553, 553, 553, 553, 552, 552, 552, 552, 552, 552, 552, 552, 552, 552, 552, 552, 553, 553, 553, 553, 553, 554, 554, 554, 554, 555, 555, 555, 556, 556, 556, 556, 556, 556, 556, 556, 556, 556, 556, 556, 556, 556, 556, 556, 556, 556, 556, 556, 556, 556, 556, 556, 556, 556, 556, 556, 556, 556, 556, 556, 556, 556, 556, 556, 556, 556, 556, 556, 557, 557, 557, 557, 557, 557, 557, 557, 557, 557, 557, 557, 556, 556, 556, 556, 556, 556, 556, 556, 556, 556, 556, 555, 555, 555, 555, 556, 556, 556, 556, 556, 556, 556, 556, 557, 557, 557, 557, 557, 557, 557, 557, 557, 557, 557, 557, 557, 557, 557, 557, 557, 556, 556, 556, 556, 556, 556, 556, 556, 556, 556, 556, 556, 556, 556, 556, 556, 556, 556, 556, 556, 556, 557, 557, 557, 557, 557, 557, 557, 558, 558, 557, 557, 557, 557, 557, 557, 557, 557, 557, 557, 557, 557, 557, 557, 557, 557, 557, 557, 557, 557, 557, 557, 557, 557, 556, 556, 556, 556, 556, 556, 556, 556, 556, 557, 557, 557, 557, 558, 558, 558, 559, 559, 559, 559, 560, 560, 560, 560, 560, 560, 560, 560, 560, 560, 560, 560, 560, 560, 560, 560, 560, 561, 561, 561, 561, 561, 562, 562, 562, 562, 562, 563, 563, 563, 563, 564, 564, 564, 564, 564, 564, 564, 564, 565, 565, 565, 565, 565, 565, 565, 565, 565, 565, 565, 565, 565, 565, 565, 565, 565, 565, 565, 565, 565, 565, 565, 566, 566, 566, 566, 566, 566, 566, 567, 567, 567, 567, 567, 567, 567, 567, 568, 568, 568, 568, 568, 568, 568, 568, 568, 568, 568, 568, 568, 569, 569, 569, 569, 569, 569, 569, 569, 569, 569, 569, 569, 569, 569, 569, 569, 569, 569, 569, 569, 569, 569, 774, 775, 775, 775, 775, 775, 776, 776, 776, 777, 777, 777, 777, 777, 777, 777, 777, 777, 777, 777, 777, 776, 776, 776, 776, 776, 776, 776, 776, 776, 776, 777, 777, 777, 777, 777, 777, 778, 778, 778, 778, 778, 778, 778, 778, 778, 778, 778, 778, 778, 778, 778, 778, 778, 778, 778, 778
