1267, 1267, 1267, 1267, 1264, 1264, 1264, 1264, 1264, 1264, 1264, 1264, 1261, 1261, 1261, 1261, 1261, 1261, 1261, 1261, 1261, 1261, 1261, 1259, 1259, 1259, 1259, 1259, 1259, 1256, 1256, 1256, 1254, 1254, 1254, 1254, 1254, 1254, 1254, 1254, 1254, 1254, 1254, 1254, 1254, 1254, 1254, 1254, 1254, 1254, 1254, 1251, 1251, 1251, 1251, 1251, 1251, 1251, 1251, 1251, 1251, 1251, 1251, 1251, 1254, 1254, 1254, 1254, 1254, 1254, 1254, 1254, 1254, 1254, 1254, 1254, 1254, 1251, 1249, 1249, 1249, 1249, 1249, 1251, 1251, 1251, 1251, 1251, 1251, 1251, 1251, 1251, 1254, 1254, 1254, 1254, 1254, 1256, 1256, 1256, 1256, 1256, 1256, 1256, 1256, 1259, 1259, 1259, 1259, 1259, 1259, 1261, 1261, 1261, 1264, 1264, 1267, 1269, 1269, 1269, 1269, 1272, 1272, 1272, 1272, 1272, 1272, 1272, 1272, 1272, 1272, 1272, 1272, 1272, 1269, 1269, 1269, 1267, 1267, 1267, 1267, 1267, 1267, 1267, 1267, 1267, 1267, 1267, 1269, 1269, 1269, 1269, 1269, 1269, 1269, 1269, 1272, 1272, 1272, 1272, 1272, 1272, 1272, 1272, 1272, 1272, 1272, 1272, 1272, 1272, 1269, 1269, 1269, 1269, 1267, 1267, 1267, 1267, 1264, 1264, 1261, 1261, 1261, 1261, 1261, 1259, 1259, 1259, 1259, 1259, 1259, 1259, 1259, 1259, 1259, 1259, 1259, 1259, 1259, 1256, 1256, 1254, 1251, 1251, 1249, 1244, 1244, 1241, 1241, 1236, 1231, 1231, 1226, 1226, 1222, 1214, 1214, 1210, 1205, 1205, 1203, 1203, 1200, 1198, 1198, 1196, 1196, 1196, 1193, 1193, 1193, 1193, 1193, 1191, 1191, 1191, 1189, 1189, 1189, 1189, 1189, 1189, 1189, 1191, 1191, 1193, 1196, 1196, 1198, 1198, 1205, 1210, 1210, 1212, 1217, 1217, 1222, 1226, 1226, 1231, 1231, 1236, 1239, 1239, 1241, 1244, 1244, 1246, 1246, 1244, 1244, 1244, 1241, 1241, 1241, 1239, 1239, 1236, 1236, 1236, 1234, 1234, 1231, 1229, 1229, 1226, 1226, 1226, 1219, 1219, 1214, 1207, 1207, 1203, 1203, 1196, 1193, 1193, 1187, 1187, 1182, 1178, 1178, 1178, 1178, 1178, 1175, 1175, 1175, 1175, 1175, 1175, 1178, 1180, 1180, 1184, 1187, 1187, 1189, 1189, 1193, 1196, 1196, 1203, 1210, 1210, 1212, 1217, 1217, 1222, 1222, 1229, 1234, 1234, 1239, 1244, 1244, 1246, 1249, 1249, 1251, 1254, 1254, 1254, 1251, 1251, 1251, 1249, 1249, 1249, 1249, 1249, 1249, 1249, 1249, 1249, 1249, 1249, 1249, 1249, 1249, 1249, 1249, 1249, 1249, 1249, 1249, 1249, 1249, 1249, 1249, 1246, 1244, 1244, 1241, 1241, 1239, 1234, 1234, 1229, 1226, 1226, 1222, 1222, 1214, 1210, 1210, 1193, 1193, 1171, 1151, 1151, 1151, 0, 1110, 1110, 1090, 1072, 1072, 1059, 1059, 1057, 1055, 1055, 1055, 1053, 1053, 1053, 1053, 1053, 1055, 1055, 1055, 1055, 1057, 1057, 1059, 1059, 1061, 1061, 1061, 1062, 1064, 1064, 1064, 1066, 1066, 1066, 1066, 1066, 1066, 1066, 1064, 1064, 1062, 1062, 1061, 1059, 1059, 1059, 1057, 1057, 1057, 1057, 1057, 1057, 1057, 1057, 1057, 1059, 1059, 1059, 1059, 1059, 1059, 1059, 1059, 1059, 1059, 1061, 1061, 1061, 1061, 1061, 1061, 1061, 1061, 1061, 1061, 1061, 1061, 1059, 1059, 1059, 1059, 1059, 1059, 1059, 1059, 1059, 1059, 1059, 1059, 1059, 1059, 1059, 1061, 1061, 1059, 1059, 1057, 1057, 1057, 1055, 1055, 1053, 1052, 1052
1267, 1267, 1267, 1267, 1264, 1264, 1264, 1264, 1264, 1264, 1264, 1264, 1261, 1261, 1261, 1261, 1261, 1261, 1261, 1261, 1261, 1261, 1261, 1259, 1259, 1259, 1259, 1259, 1259, 1256, 1256, 1256, 1254, 1254, 1254, 1254, 1254, 1254, 1254, 1254, 1254, 1254, 1254, 1254, 1254, 1254, 1254, 1254, 1254, 1254, 1254, 1251, 1251, 1251, 1251, 1251, 1251, 1251, 1251, 1251, 1251, 1251, 1251, 1251, 1254, 1254, 1254, 1254, 1254, 1254, 1254, 1254, 1254, 1254, 1254, 1251, 1251, 1251, 1249, 1249, 1249, 1249, 1249, 1249, 1251, 1251, 1251, 1251, 1251, 1251, 1251, 1251, 1254, 1254, 1254, 1256, 1256, 1256, 1256, 1256, 1256, 1256, 1256, 1259, 1259, 1259, 1259, 1259, 1259, 1259, 1261, 1261, 1261, 1264, 1267, 1267, 1267, 1269, 1269, 1272, 1272, 1272, 1274, 1274, 1274, 1274, 1274, 1274, 1274, 1274, 1274, 1274, 1272, 1272, 1272, 1269, 1269, 1269, 1269, 1269, 1269, 1269, 1269, 1269, 1269, 1269, 1269, 1269, 1269, 1269, 1269, 1269, 1269, 1269, 1269, 1269, 1272, 1272, 1272, 1272, 1272, 1272, 1272, 1272, 1272, 1272, 1272, 1272, 1272, 1272, 1269, 1269, 1269, 1269, 1269, 1267, 1267, 1267, 1264, 1264, 1261, 1261, 1261, 1261, 1261, 1259, 1259, 1259, 1259, 1259, 1259, 1259, 1259, 1259, 1259, 1259, 1259, 1259, 1259, 1256, 1256, 1254, 1251, 1251, 1249, 1244, 1244, 1241, 1241, 1236, 1231, 1231, 1226, 1226, 1222, 1214, 1214, 1210, 1207, 1207, 1205, 1205, 1203, 1200, 1200, 1198, 1196, 1196, 1196, 1196, 1193, 1193, 1193, 1193, 1191, 1191, 1189, 1189, 1189, 1189, 1189, 1189, 1189, 1191, 1191, 1193, 1196, 1196, 1198, 1198, 1205, 1210, 1210, 1214, 1219, 1219, 1224, 1229, 1229, 1234, 1234, 1239, 1241, 1241, 1244, 1246, 1246, 1246, 1246, 1246, 1246, 1244, 1244, 1244, 1241, 1239, 1239, 1236, 1236, 1236, 1234, 1234, 1231, 1229, 1229, 1226, 1226, 1226, 1219, 1219, 1214, 1207, 1207, 1203, 1203, 1196, 1193, 1193, 1187, 1187, 1182, 1178, 1178, 1178, 1178, 1178, 1175, 1175, 1175, 1175, 1175, 1175, 1178, 1180, 1180, 1184, 1187, 1187, 1189, 1189, 1193, 1196, 1196, 1203, 1210, 1210, 1212, 1217, 1217, 1222, 1222, 1229, 1234, 1234, 1239, 1244, 1244, 1246, 1249, 1249, 1251, 1254, 1254, 1254, 1251, 1251, 1251, 1249, 1249, 1249, 1249, 1249, 1249, 1249, 1249, 1249, 1249, 1249, 1249, 1249, 1249, 1249, 1249, 1249, 1249, 1249, 1249, 1249, 1249, 1246, 1246, 1244, 1241, 1241, 1239, 1239, 1236, 1231, 1231, 1226, 1222, 1222, 1217, 1217, 1212, 1205, 1205, 1189, 1189, 1166, 1149, 1149, 1149, 0, 1110, 1110, 1090, 1072, 1072, 1059, 1059, 1057, 1055, 1055, 1055, 1053, 1053, 1053, 1053, 1053, 1055, 1055, 1055, 1055, 1057, 1057, 1059, 1059, 1061, 1061, 1061, 1062, 1064, 1064, 1064, 1066, 1066, 1066, 1066, 1066, 1066, 1066, 1064, 1064, 1062, 1062, 1061, 1059, 1059, 1059, 1057, 1057, 1057, 1057, 1057, 1057, 1057, 1057, 1057, 1059, 1059, 1061, 1061, 1061, 1061, 1061, 1061, 1061, 1061, 1061, 1061, 1061, 1062, 1062, 1062, 1062, 1062, 1062, 1062, 1061, 1061, 1059, 1059, 1059, 1059, 1059, 1059, 1059, 1059, 1059, 1059, 1059, 1059, 1059, 1059, 1059, 1061, 1059, 1059, 1059, 1057, 1057, 1057, 1055, 1055, 1053, 1052, 1052
1267, 1267, 1267, 1267, 1267, 1264, 1264, 1264, 1264, 1264, 1264, 1264, 1264, 1261, 1261, 1261, 1261, 1261, 1261, 1261, 1261, 1261, 1261, 1259, 1259, 1259, 1259, 1259, 1259, 1256, 1256, 1256, 1256, 1256, 1254, 1254, 1254, 1254, 1254, 1254, 1254, 1256, 1256, 1256, 1254, 1254, 1254, 1254, 1254, 1254, 1254, 1254, 1254, 1251, 1251, 1251, 1251, 1251, 1251, 1251, 1251, 1251, 1251, 1251, 1254, 1254, 1254, 1254, 1254, 1254, 1254, 1254, 1254, 1254, 1254, 1251, 1251, 1251, 1249, 1249, 1249, 1249, 1249, 1249, 1251, 1251, 1251, 1251, 1251, 1251, 1251, 1251, 1254, 1254, 1256, 1256, 1256, 1256, 1256, 1256, 1256, 1256, 1259, 1259, 1259, 1259, 1261, 1261, 1261, 1261, 1261, 1264, 1264, 1267, 1267, 1267, 1269, 1272, 1272, 1272, 1272, 1274, 1277, 1277, 1277, 1277, 1277, 1277, 1277, 1274, 1274, 1274, 1274, 1274, 1272, 1272, 1272, 1272, 1272, 1269, 1269, 1269, 1269, 1269, 1269, 1269, 1269, 1269, 1269, 1269, 1269, 1269, 1269, 1269, 1269, 1269, 1272, 1272, 1272, 1272, 1272, 1272, 1272, 1272, 1272, 1272, 1272, 1272, 1272, 1272, 1269, 1269, 1269, 1269, 1269, 1267, 1267, 1267, 1264, 1264, 1261, 1261, 1261, 1261, 1261, 1259, 1259, 1259, 1259, 1259, 1259, 1259, 1259, 1259, 1256, 1256, 1256, 1256, 1256, 1256, 1256, 1254, 1251, 1251, 1249, 1244, 1244, 1241, 1241, 1234, 1231, 1231, 1226, 1226, 1222, 1214, 1214, 1210, 1207, 1207, 1205, 1205, 1203, 1200, 1200, 1198, 1196, 1196, 1196, 1196, 1193, 1193, 1193, 1193, 1191, 1191, 1189, 1189, 1187, 1187, 1187, 1187, 1187, 1189, 1189, 1191, 1193, 1193, 1198, 1198, 1203, 1210, 1210, 1214, 1219, 1219, 1224, 1229, 1229, 1234, 1234, 1239, 1241, 1241, 1244, 1246, 1246, 1246, 1246, 1246, 1246, 1244, 1244, 1244, 1241, 1239, 1239, 1236, 1236, 1236, 1234, 1234, 1231, 1229, 1229, 1226, 1226, 1224, 1219, 1219, 1214, 1207, 1207, 1203, 1203, 1196, 1193, 1193, 1187, 1187, 1182, 1178, 1178, 1178, 1178, 1178, 1175, 1175, 1175, 1175, 1175, 1175, 1178, 1180, 1180, 1184, 1187, 1187, 1187, 1187, 1193, 1198, 1198, 1205, 1212, 1212, 1214, 1217, 1217, 1224, 1224, 1231, 1236, 1236, 1241, 1246, 1246, 1249, 1251, 1251, 1254, 1254, 1254, 1254, 1254, 1251, 1251, 1251, 1251, 1251, 1251, 1251, 1251, 1251, 1251, 1249, 1249, 1249, 1249, 1249, 1249, 1249, 1249, 1249, 1246, 1246, 1246, 1249, 1249, 1246, 1246, 1244, 1241, 1241, 1239, 1239, 1234, 1229, 1229, 1224, 1219, 1219, 1214, 1214, 1207, 1203, 1203, 1187, 1187, 1166, 1147, 1147, 1147, 0, 1110, 1110, 1090, 1073, 1073, 1061, 1061, 1059, 1057, 1057, 1057, 1057, 1057, 1057, 1057, 1057, 1057, 1057, 1057, 1059, 1061, 1061, 1062, 1062, 1062, 1064, 1064, 1064, 1066, 1066, 1068, 1068, 1068, 1068, 1068, 1068, 1068, 1068, 1066, 1066, 1064, 1064, 1062, 1061, 1061, 1059, 1059, 1059, 1059, 1059, 1059, 1059, 1059, 1059, 1059, 1061, 1061, 1061, 1061, 1061, 1062, 1062, 1062, 1062, 1062, 1062, 1062, 1062, 1062, 1062, 1062, 1062, 1062, 1062, 1062, 1061, 1061, 1061, 1059, 1059, 1059, 1059, 1059, 1059, 1059, 1059, 1059, 1061, 1059, 1059, 1061, 1061, 1061, 1059, 1059, 1059, 1057, 1057, 1059, 1057, 1057, 1053, 1053, 1053
1267, 1267, 1267, 1267, 1267, 1267, 1267, 1267, 1267, 1264, 1264, 1264, 1264, 1264, 1264, 1261, 1261, 1261, 1261, 1261, 1261, 1259, 1259, 1259, 1259, 1259, 1256, 1256, 1256, 1256, 1256, 1256, 1256, 1256, 1254, 1254, 1254, 1254, 1254, 1254, 1254, 1256, 1256, 1256, 1254, 1254, 1254, 1254, 1254, 1254, 1254, 1254, 1254, 1251, 1251, 1251, 1251, 1251, 1251, 1251, 1251, 1251, 1251, 1251, 1251, 1251, 1251, 1251, 1251, 1251, 1251, 1251, 1251, 1251, 1251, 1249, 1249, 1249, 1246, 1246, 1246, 1249, 1249, 1249, 1249, 1249, 1251, 1251, 1251, 1251, 1251, 1251, 1254, 1254, 1256, 1256, 1256, 1256, 1256, 1256, 1256, 1256, 1256, 1259, 1259, 1259, 1261, 1261, 1261, 1261, 1261, 1264, 1264, 1267, 1267, 1267, 1269, 1272, 1272, 1272, 1272, 1274, 1277, 1277, 1277, 1277, 1277, 1277, 1277, 1274, 1274, 1274, 1274, 1274, 1272, 1272, 1272, 1272, 1272, 1269, 1269, 1269, 1269, 1269, 1269, 1269, 1269, 1269, 1269, 1269, 1269, 1269, 1269, 1269, 1269, 1269, 1272, 1272, 1272, 1272, 1272, 1272, 1272, 1272, 1272, 1272, 1272, 1272, 1272, 1272, 1272, 1272, 1269, 1269, 1269, 1267, 1267, 1267, 1264, 1264, 1264, 1264, 1261, 1261, 1261, 1261, 1261, 1261, 1259, 1259, 1259, 1259, 1259, 1259, 1256, 1256, 1256, 1256, 1256, 1254, 1254, 1254, 1251, 1251, 1246, 1244, 1244, 1239, 1239, 1234, 1231, 1231, 1224, 1224, 1219, 1214, 1214, 1210, 1207, 1207, 1205, 1205, 1205, 1203, 1203, 1200, 1198, 1198, 1196, 1196, 1196, 1196, 1196, 1193, 1191, 1191, 1187, 1187, 1187, 1184, 1184, 1184, 1184, 1187, 1187, 1189, 1191, 1191, 1196, 1196, 1200, 1207, 1207, 1212, 1219, 1219, 1224, 1231, 1231, 1234, 1234, 1239, 1244, 1244, 1244, 1246, 1246, 1246, 1246, 1246, 1246, 1246, 1244, 1244, 1241, 1239, 1239, 1239, 1239, 1236, 1234, 1234, 1231, 1229, 1229, 1226, 1226, 1224, 1219, 1219, 1214, 1207, 1207, 1203, 1203, 1196, 1193, 1193, 1187, 1187, 1182, 1180, 1180, 1180, 1178, 1178, 1175, 1175, 1175, 1175, 1175, 1175, 1178, 1180, 1180, 1184, 1187, 1187, 1187, 1187, 1193, 1198, 1198, 1205, 1212, 1212, 1214, 1219, 1219, 1224, 1231, 1231, 1239, 1239, 1244, 1246, 1246, 1251, 1251, 1251, 1254, 1254, 1254, 1256, 1254, 1251, 1251, 1251, 1251, 1251, 1251, 1251, 1251, 1251, 1251, 1249, 1249, 1249, 1249, 1249, 1249, 1249, 1249, 1249, 1246, 1246, 1246, 1249, 1249, 1246, 1246, 1244, 1241, 1241, 1239, 1239, 1234, 1229, 1229, 1224, 1219, 1219, 1214, 1214, 1207, 1203, 1203, 1187, 1187, 1166, 1147, 1147, 1147, 0, 1110, 1110, 1092, 1075, 1075, 1064, 1064, 1061, 1059, 1059, 1059, 1059, 1059, 1057, 1057, 1057, 1057, 1057, 1057, 1059, 1061, 1061, 1062, 1062, 1062, 1064, 1064, 1064, 1066, 1066, 1068, 1068, 1068, 1068, 1068, 1068, 1068, 1068, 1066, 1066, 1064, 1064, 1062, 1061, 1061, 1059, 1059, 1059, 1059, 1059, 1059, 1059, 1059, 1059, 1059, 1061, 1061, 1061, 1061, 1061, 1062, 1062, 1062, 1062, 1062, 1062, 1062, 1062, 1062, 1062, 1062, 1062, 1062, 1062, 1062, 1061, 1061, 1061, 1059, 1059, 1059, 1059, 1059, 1059, 1059, 1059, 1059, 1059, 1059, 1059, 1059, 1059, 1059, 1059, 1059, 1059, 1057, 1057, 1057, 1055, 1055, 1053, 1053, 1053
1267, 1267, 1267, 1267, 1267, 1267, 1267, 1267, 1267, 1264, 1264, 1264, 1264, 1264, 1264, 1261, 1261, 1261, 1261, 1261, 1261, 1259, 1259, 1259, 1259, 1259, 1256, 1256, 1256, 1256, 1256, 1256, 1256, 1256, 1256, 1256, 1256, 1254, 1254, 1254, 1256, 1256, 1256, 1256, 1256, 1256, 1256, 1254, 1254, 1254, 1254, 1254, 1254, 1251, 1251, 1249, 1249, 1249, 1249, 1249, 1249, 1249, 1249, 1249, 1249, 1249, 1249, 1249, 1249, 1249, 1249, 1249, 1249, 1249, 1249, 1249, 1249, 1246, 1246, 1246, 1246, 1246, 1246, 1249, 1249, 1249, 1249, 1249, 1249, 1249, 1249, 1249, 1251, 1251, 1254, 1254, 1254, 1254, 1254, 1254, 1256, 1256, 1256, 1259, 1259, 1259, 1261, 1261, 1261, 1261, 1261, 1264, 1264, 1267, 1269, 1269, 1272, 1272, 1272, 1274, 1274, 1277, 1277, 1277, 1277, 1277, 1277, 1277, 1277, 1277, 1277, 1277, 1274, 1274, 1274, 1272, 1272, 1272, 1272, 1272, 1269, 1269, 1269, 1269, 1269, 1269, 1269, 1269, 1269, 1269, 1269, 1269, 1269, 1269, 1269, 1269, 1272, 1272, 1272, 1272, 1272, 1272, 1272, 1272, 1272, 1272, 1272, 1272, 1272, 1272, 1272, 1272, 1269, 1269, 1269, 1269, 1269, 1267, 1264, 1264, 1264, 1264, 1264, 1264, 1264, 1261, 1261, 1261, 1261, 1259, 1259, 1259, 1259, 1259, 1256, 1256, 1256, 1256, 1256, 1254, 1254, 1254, 1251, 1251, 1246, 1244, 1244, 1239, 1239, 1234, 1231, 1231, 1224, 1224, 1219, 1214, 1214, 1210, 1210, 1210, 1207, 1207, 1205, 1203, 1203, 1203, 1200, 1200, 1198, 1198, 1198, 1196, 1196, 1193, 1191, 1191, 1187, 1187, 1187, 1184, 1184, 1184, 1184, 1187, 1187, 1189, 1191, 1191, 1196, 1196, 1200, 1207, 1207, 1212, 1219, 1219, 1224, 1231, 1231, 1234, 1234, 1239, 1244, 1244, 1244, 1246, 1246, 1246, 1246, 1246, 1246, 1246, 1244, 1244, 1241, 1239, 1239, 1239, 1239, 1236, 1234, 1234, 1231, 1229, 1229, 1226, 1226, 1224, 1219, 1219, 1214, 1207, 1207, 1203, 1203, 1196, 1193, 1193, 1187, 1187, 1182, 1180, 1180, 1180, 1178, 1178, 1175, 1175, 1175, 1175, 1175, 1175, 1178, 1180, 1180, 1184, 1184, 1184, 1187, 1187, 1191, 1198, 1198, 1203, 1212, 1212, 1214, 1219, 1219, 1224, 1231, 1231, 1239, 1239, 1244, 1246, 1246, 1251, 1251, 1251, 1254, 1254, 1254, 1256, 1254, 1251, 1251, 1251, 1251, 1251, 1251, 1251, 1251, 1251, 1251, 1249, 1249, 1249, 1249, 1249, 1249, 1246, 1246, 1246, 1246, 1246, 1246, 1246, 1246, 1246, 1246, 1244, 1241, 1241, 1236, 1236, 1234, 1229, 1229, 1222, 1219, 1219, 1212, 1212, 1207, 1200, 1200, 1182, 1182, 1162, 1145, 1145, 1126, 1126, 1110, 1110, 1092, 1075, 1075, 1064, 1064, 1061, 1059, 1059, 1059, 1059, 1059, 1059, 1059, 1059, 1061, 1061, 1061, 1062, 1064, 1064, 1064, 1066, 1066, 1068, 1068, 1068, 1070, 1070, 1070, 1072, 1070, 1070, 1070, 1070, 1070, 1070, 1066, 1066, 1066, 1066, 1064, 1061, 1061, 1061, 1061, 1061, 1061, 1061, 1061, 1061, 1061, 1061, 1061, 1061, 1061, 1061, 1061, 1061, 1062, 1062, 1062, 1062, 1062, 1062, 1062, 1062, 1064, 1064, 1062, 1062, 1062, 1062, 1062, 1062, 1062, 1061, 1061, 1061, 1059, 1059, 1059, 1059, 1059, 1059, 1059, 1059, 1059, 1059, 1059, 1059, 1059, 1059, 1057, 1057, 1057, 1057, 1057, 1055, 1055, 1055, 1053, 1053
1267, 1267, 1267, 1267, 1267, 1267, 1267, 1267, 1267, 1267, 1267, 1267, 1264, 1264, 1264, 1264, 1264, 1261, 1261, 1261, 1261, 1259, 1259, 1259, 1259, 1259, 1256, 1256, 1256, 1256, 1256, 1256, 1256, 1256, 1256, 1256, 1256, 1256, 1256, 1256, 1256, 1256, 1256, 1256, 1256, 1256, 1256, 1256, 1256, 1256, 1256, 1254, 1254, 1251, 1251, 1249, 1249, 1249, 1249, 1249, 1249, 1249, 1249, 1249, 1249, 1249, 1249, 1249, 1249, 1249, 1249, 1249, 1249, 1249, 1249, 1249, 1249, 1246, 1246, 1246, 1246, 1246, 1246, 1249, 1249, 1249, 1249, 1249, 1249, 1249, 1249, 1249, 1251, 1251, 1254, 1254, 1254, 1254, 1254, 1254, 1256, 1256, 1256, 1259, 1259, 1259, 1261, 1261, 1261, 1261, 1264, 1267, 1267, 1267, 1269, 1269, 1272, 1274, 1274, 1274, 1274, 1277, 1277, 1277, 1277, 1277, 1277, 1277, 1277, 1277, 1277, 1277, 1274, 1274, 1274, 1272, 1272, 1272, 1272, 1272, 1269, 1269, 1269, 1269, 1269, 1267, 1267, 1267, 1267, 1267, 1267, 1267, 1269, 1269, 1269, 1269, 1269, 1272, 1272, 1272, 1272, 1272, 1272, 1272, 1272, 1272, 1272, 1272, 1272, 1272, 1272, 1272, 1269, 1269, 1269, 1269, 1269, 1267, 1264, 1264, 1264, 1264, 1264, 1264, 1264, 1261, 1261, 1261, 1261, 1259, 1259, 1259, 1259, 1259, 1256, 1256, 1256, 1256, 1256, 1254, 1254, 1251, 1251, 1251, 1246, 1244, 1244, 1239, 1239, 1234, 1229, 1229, 1224, 1224, 1219, 1214, 1214, 1210, 1207, 1207, 1205, 1205, 1205, 1203, 1203, 1203, 1200, 1200, 1198, 1198, 1198, 1196, 1196, 1193, 1191, 1191, 1187, 1187, 1187, 1184, 1184, 1184, 1184, 1187, 1187, 1187, 1187, 1191, 1193, 1193, 1200, 1207, 1207, 1212, 1219, 1219, 1224, 1229, 1229, 1234, 1234, 1239, 1244, 1244, 1246, 1246, 1246, 1246, 1246, 1246, 1246, 1246, 1244, 1244, 1241, 1239, 1239, 1239, 1239, 1236, 1234, 1234, 1231, 1229, 1229, 1226, 1226, 1224, 1219, 1219, 1214, 1207, 1207, 1203, 1203, 1196, 1193, 1193, 1187, 1187, 1184, 1180, 1180, 1180, 1178, 1178, 1178, 1178, 1178, 1175, 1175, 1175, 1178, 1180, 1180, 1182, 1184, 1184, 1184, 1184, 1191, 1196, 1196, 1203, 1210, 1210, 1214, 1219, 1219, 1226, 1234, 1234, 1239, 1239, 1244, 1249, 1249, 1251, 1254, 1254, 1254, 1256, 1256, 1256, 1254, 1251, 1251, 1251, 1251, 1251, 1251, 1251, 1251, 1251, 1251, 1249, 1249, 1249, 1249, 1249, 1249, 1246, 1246, 1246, 1246, 1246, 1246, 1246, 1246, 1246, 1246, 1244, 1241, 1241, 1236, 1236, 1234, 1229, 1229, 1222, 1219, 1219, 1212, 1212, 1207, 1200, 1200, 1182, 1182, 1162, 1145, 1145, 1126, 1126, 1110, 1110, 1094, 1077, 1077, 1064, 1064, 1061, 1059, 1059, 1059, 1059, 1061, 1061, 1061, 1061, 1064, 1064, 1064, 1064, 1066, 1066, 1068, 1068, 1068, 1068, 1068, 1070, 1070, 1070, 1072, 1072, 1072, 1072, 1072, 1070, 1070, 1070, 1068, 1068, 1066, 1066, 1064, 1062, 1062, 1061, 1061, 1061, 1061, 1061, 1061, 1061, 1061, 1061, 1061, 1061, 1061, 1061, 1061, 1061, 1062, 1062, 1062, 1062, 1062, 1064, 1064, 1064, 1064, 1064, 1064, 1064, 1064, 1064, 1064, 1064, 1064, 1062, 1061, 1061, 1061, 1059, 1059, 1059, 1059, 1059, 1059, 1059, 1059, 1059, 1059, 1059, 1059, 1059, 1057, 1057, 1057, 1057, 1057, 1055, 1055, 1055, 1055, 1055
1267, 1267, 1267, 1267, 1267, 1267, 1267, 1267, 1267, 1267, 1267, 1267, 1264, 1264, 1264, 1264, 1264, 1261, 1261, 1261, 1261, 1259, 1259, 1259, 1259, 1259, 1256, 1256, 1256, 1256, 1256, 1256, 1256, 1256, 1256, 1256, 1256, 1256, 1256, 1256, 1256, 1256, 1256, 1256, 1256, 1256, 1256, 1256, 1256, 1256, 1256, 1254, 1254, 1251, 1251, 1249, 1249, 1249, 1249, 1249, 1249, 1249, 1249, 1249, 1249, 1249, 1249, 1249, 1249, 1249, 1249, 1249, 1249, 1249, 1249, 1249, 1249, 1246, 1246, 1246, 1246, 1246, 1246, 1246, 1249, 1249, 1249, 1249, 1249, 1249, 1249, 1249, 1251, 1251, 1251, 1254, 1254, 1254, 1254, 1254, 1256, 1256, 1256, 1259, 1259, 1259, 1261, 1261, 1261, 1261, 1264, 1267, 1267, 1267, 1269, 1269, 1272, 1274, 1274, 1274, 1274, 1277, 1277, 1277, 1277, 1277, 1277, 1277, 1277, 1277, 1277, 1277, 1274, 1274, 1274, 1274, 1274, 1272, 1272, 1272, 1269, 1269, 1269, 1269, 1269, 1267, 1267, 1267, 1267, 1267, 1267, 1267, 1267, 1267, 1267, 1267, 1269, 1269, 1269, 1269, 1272, 1272, 1272, 1272, 1272, 1272, 1272, 1272, 1272, 1272, 1272, 1272, 1272, 1272, 1269, 1269, 1269, 1269, 1267, 1267, 1267, 1267, 1267, 1264, 1264, 1264, 1261, 1261, 1261, 1261, 1261, 1259, 1259, 1259, 1259, 1259, 1256, 1256, 1256, 1254, 1254, 1251, 1249, 1249, 1246, 1244, 1244, 1239, 1239, 1234, 1229, 1229, 1224, 1224, 1219, 1214, 1214, 1210, 1207, 1207, 1205, 1205, 1205, 1205, 1205, 1203, 1203, 1203, 1200, 1200, 1200, 1198, 1198, 1196, 1191, 1191, 1189, 1189, 1187, 1184, 1184, 1184, 1184, 1187, 1187, 1187, 1187, 1191, 1193, 1193, 1200, 1207, 1207, 1212, 1219, 1219, 1224, 1229, 1229, 1234, 1234, 1239, 1244, 1244, 1246, 1246, 1246, 1246, 1246, 1246, 1246, 1246, 1244, 1244, 1241, 1239, 1239, 1239, 1239, 1236, 1234, 1234, 1231, 1229, 1229, 1226, 1226, 1224, 1219, 1219, 1214, 1207, 1207, 1203, 1203, 1198, 1193, 1193, 1189, 1189, 1187, 1182, 1182, 1180, 1180, 1180, 1180, 1180, 1178, 1175, 1175, 1175, 1178, 1180, 1180, 1182, 1184, 1184, 1184, 1184, 1191, 1196, 1196, 1203, 1210, 1210, 1214, 1219, 1219, 1226, 1234, 1234, 1239, 1239, 1244, 1249, 1249, 1251, 1254, 1254, 1254, 1256, 1256, 1256, 1254, 1251, 1251, 1251, 1251, 1251, 1251, 1251, 1251, 1251, 1251, 1249, 1249, 1249, 1249, 1249, 1249, 1246, 1246, 1246, 1246, 1246, 1246, 1246, 1246, 1246, 1246, 1244, 1241, 1241, 1236, 1236, 1231, 1226, 1226, 1222, 1217, 1217, 1212, 1212, 1205, 1200, 1200, 1182, 1182, 1162, 1145, 1145, 1126, 1126, 1108, 1108, 1094, 1077, 1077, 1064, 1064, 1061, 1059, 1059, 1059, 1059, 1061, 1061, 1061, 1061, 1064, 1064, 1064, 1064, 1066, 1066, 1068, 1068, 1068, 1068, 1068, 1070, 1070, 1070, 1072, 1072, 1072, 1072, 1070, 1070, 1070, 1070, 1068, 1068, 1066, 1066, 1064, 1062, 1062, 1061, 1061, 1061, 1061, 1061, 1061, 1061, 1061, 1061, 1061, 1061, 1061, 1061, 1061, 1061, 1062, 1062, 1062, 1062, 1062, 1064, 1064, 1064, 1064, 1064, 1064, 1064, 1064, 1064, 1064, 1064, 1064, 1062, 1061, 1061, 1061, 1059, 1059, 1059, 1059, 1059, 1059, 1059, 1059, 1059, 1059, 1059, 1059, 1059, 1057, 1057, 1057, 1057, 1057, 1055, 1055, 1055, 1055, 1055
1269, 1269, 1269, 1269, 1269, 1269, 1269, 1267, 1267, 1267, 1267, 1267, 1264, 1264, 1264, 1264, 1264, 1261, 1261, 1261, 1261, 1259, 1259, 1259, 1259, 1259, 1259, 1259, 1256, 1256, 1259, 1259, 1256, 1256, 1256, 1256, 1256, 1259, 1259, 1259, 1259, 1259, 1259, 1259, 1259, 1259, 1259, 1259, 1259, 1259, 1256, 1256, 1256, 1254, 1254, 1251, 1249, 1249, 1249, 1249, 1249, 1249, 1249, 1249, 1249, 1249, 1249, 1249, 1249, 1249, 1249, 1249, 1249, 1249, 1249, 1249, 1249, 1246, 1246, 1246, 1246, 1246, 1246, 1246, 1249, 1249, 1249, 1249, 1249, 1249, 1249, 1249, 1251, 1251, 1251, 1254, 1254, 1254, 1254, 1254, 1256, 1256, 1256, 1259, 1259, 1259, 1261, 1261, 1261, 1261, 1264, 1267, 1267, 1269, 1269, 1269, 1272, 1274, 1274, 1277, 1277, 1277, 1280, 1280, 1280, 1280, 1280, 1280, 1280, 1277, 1277, 1277, 1274, 1274, 1274, 1274, 1274, 1274, 1274, 1272, 1269, 1269, 1269, 1269, 1269, 1267, 1267, 1267, 1267, 1267, 1267, 1267, 1267, 1267, 1267, 1267, 1269, 1269, 1269, 1269, 1272, 1272, 1272, 1272, 1272, 1272, 1272, 1272, 1272, 1272, 1272, 1272, 1272, 1272, 1272, 1272, 1272, 1269, 1269, 1269, 1269, 1269, 1269, 1267, 1267, 1267, 1264, 1264, 1264, 1261, 1261, 1261, 1261, 1261, 1259, 1259, 1259, 1256, 1256, 1254, 1254, 1251, 1249, 1249, 1246, 1244, 1244, 1239, 1239, 1234, 1229, 1229, 1224, 1224, 1219, 1214, 1214, 1210, 1207, 1207, 1205, 1205, 1205, 1205, 1205, 1203, 1203, 1203, 1200, 1200, 1200, 1198, 1198, 1196, 1191, 1191, 1189, 1189, 1187, 1184, 1184, 1184, 1184, 1187, 1187, 1187, 1187, 1191, 1193, 1193, 1200, 1207, 1207, 1212, 1217, 1217, 1224, 1229, 1229, 1234, 1234, 1239, 1241, 1241, 1244, 1246, 1246, 1246, 1246, 1246, 1246, 1246, 1244, 1244, 1241, 1239, 1239, 1239, 1239, 1236, 1234, 1234, 1231, 1229, 1229, 1226, 1226, 1224, 1219, 1219, 1214, 1207, 1207, 1203, 1203, 1198, 1193, 1193, 1189, 1189, 1187, 1182, 1182, 1180, 1180, 1180, 1180, 1180, 1178, 1175, 1175, 1175, 1178, 1180, 1180, 1182, 1182, 1182, 1184, 1184, 1189, 1193, 1193, 1200, 1207, 1207, 1212, 1219, 1219, 1224, 1234, 1234, 1239, 1239, 1244, 1249, 1249, 1251, 1254, 1254, 1254, 1256, 1254, 1254, 1254, 1251, 1251, 1251, 1251, 1251, 1251, 1251, 1251, 1251, 1251, 1249, 1249, 1249, 1249, 1249, 1249, 1246, 1246, 1246, 1246, 1246, 1246, 1246, 1246, 1244, 1244, 1241, 1239, 1239, 1234, 1234, 1231, 1226, 1226, 1222, 1217, 1217, 1210, 1210, 1205, 1200, 1200, 1180, 1180, 1162, 1143, 1143, 1126, 1126, 1108, 1108, 1090, 1075, 1075, 1066, 1066, 1061, 1061, 1061, 1061, 1061, 1062, 1062, 1062, 1062, 1064, 1066, 1066, 1066, 1068, 1068, 1068, 1070, 1070, 1070, 1070, 1070, 1070, 1070, 1070, 1070, 1070, 1070, 1070, 1068, 1068, 1068, 1066, 1066, 1066, 1066, 1064, 1062, 1062, 1061, 1061, 1061, 1061, 1061, 1061, 1059, 1059, 1059, 1061, 1061, 1061, 1061, 1062, 1062, 1062, 1062, 1062, 1064, 1064, 1064, 1064, 1064, 1066, 1066, 1064, 1064, 1064, 1064, 1064, 1064, 1064, 1062, 1061, 1061, 1061, 1059, 1059, 1059, 1059, 1059, 1059, 1059, 1059, 1059, 1059, 1059, 1059, 1059, 1059, 1059, 1059, 1057, 1057, 1057, 1057, 1057, 1057, 1057
1269, 1269, 1269, 1269, 1269, 1269, 1269, 1269, 1269, 1269, 1267, 1267, 1267, 1264, 1264, 1264, 1264, 1261, 1261, 1261, 1261, 1259, 1259, 1259, 1259, 1259, 1259, 1259, 1259, 1259, 1259, 1259, 1259, 1259, 1259, 1261, 1261, 1261, 1261, 1261, 1261, 1261, 1261, 1261, 1261, 1261, 1261, 1261, 1259, 1259, 1259, 1256, 1256, 1256, 1256, 1254, 1251, 1251, 1251, 1249, 1249, 1249, 1249, 1249, 1249, 1249, 1249, 1249, 1249, 1249, 1249, 1249, 1249, 1249, 1249, 1249, 1249, 1246, 1246, 1246, 1246, 1246, 1246, 1246, 1249, 1249, 1249, 1249, 1249, 1249, 1249, 1249, 1249, 1249, 1251, 1251, 1251, 1254, 1254, 1254, 1256, 1256, 1256, 1259, 1259, 1259, 1261, 1261, 1261, 1261, 1264, 1267, 1267, 1269, 1269, 1269, 1272, 1274, 1274, 1277, 1277, 1277, 1277, 1277, 1277, 1280, 1280, 1280, 1280, 1277, 1277, 1274, 1274, 1274, 1274, 1274, 1274, 1272, 1272, 1272, 1269, 1269, 1269, 1269, 1269, 1267, 1267, 1267, 1267, 1267, 1267, 1267, 1267, 1267, 1267, 1267, 1267, 1269, 1269, 1269, 1269, 1269, 1269, 1272, 1272, 1272, 1272, 1272, 1272, 1272, 1272, 1272, 1272, 1272, 1272, 1272, 1272, 1269, 1269, 1269, 1269, 1269, 1269, 1267, 1267, 1267, 1264, 1264, 1264, 1261, 1261, 1261, 1261, 1261, 1259, 1259, 1259, 1256, 1256, 1254, 1254, 1251, 1249, 1249, 1246, 1241, 1241, 1236, 1236, 1231, 1229, 1229, 1222, 1222, 1219, 1214, 1214, 1210, 1207, 1207, 1205, 1205, 1205, 1205, 1205, 1203, 1203, 1203, 1200, 1200, 1200, 1198, 1198, 1193, 1191, 1191, 1187, 1187, 1184, 1184, 1184, 1184, 1184, 1184, 1184, 1187, 1189, 1189, 1193, 1193, 1198, 1205, 1205, 1212, 1217, 1217, 1222, 1229, 1229, 1234, 1234, 1239, 1241, 1241, 1244, 1246, 1246, 1246, 1246, 1246, 1246, 1244, 1244, 1244, 1241, 1239, 1239, 1239, 1239, 1236, 1234, 1234, 1234, 1231, 1231, 1226, 1226, 1224, 1219, 1219, 1214, 1210, 1210, 1205, 1205, 1198, 1196, 1196, 1191, 1191, 1187, 1184, 1184, 1182, 1182, 1182, 1180, 1180, 1180, 1178, 1178, 1178, 1178, 1180, 1180, 1182, 1182, 1182, 1182, 1182, 1189, 1193, 1193, 1200, 1207, 1207, 1212, 1219, 1219, 1224, 1234, 1234, 1239, 1239, 1244, 1249, 1249, 1251, 1254, 1254, 1254, 1256, 1254, 1254, 1254, 1251, 1251, 1251, 1251, 1251, 1251, 1251, 1251, 1251, 1251, 1249, 1249, 1249, 1249, 1249, 1249, 1246, 1246, 1246, 1246, 1246, 1246, 1246, 1246, 1244, 1244, 1241, 1239, 1239, 1234, 1234, 1231, 1226, 1226, 1222, 1217, 1217, 1210, 1210, 1205, 1200, 1200, 1180, 1180, 1162, 1143, 1143, 1126, 1126, 1108, 1108, 1090, 1075, 1075, 1066, 1066, 1061, 1061, 1061, 1061, 1061, 1062, 1062, 1064, 1064, 1064, 1066, 1066, 1068, 1068, 1068, 1070, 1070, 1070, 1070, 1070, 1070, 1070, 1070, 1070, 1070, 1070, 1070, 1070, 1068, 1068, 1068, 1066, 1066, 1066, 1066, 1064, 1062, 1062, 1061, 1061, 1061, 1061, 1061, 1061, 1059, 1059, 1059, 1061, 1062, 1062, 1062, 1062, 1062, 1062, 1062, 1064, 1064, 1064, 1064, 1066, 1066, 1066, 1066, 1064, 1064, 1064, 1064, 1064, 1064, 1064, 1062, 1061, 1061, 1061, 1059, 1059, 1059, 1059, 1059, 1059, 1059, 1059, 1059, 1059, 1059, 1059, 1059, 1059, 1059, 1059, 1057, 1057, 1057, 1057, 1057, 1057, 1057
1269, 1269, 1269, 1269, 1269, 1269, 1269, 1269, 1269, 1269, 1267, 1267, 1267, 1264, 1264, 1264, 1264, 1261, 1261, 1261, 1261, 1259, 1259, 1259, 1259, 1259, 1259, 1259, 1259, 1259, 1259, 1259, 1259, 1259, 1259, 1261, 1261, 1261, 1261, 1261, 1261, 1261, 1261, 1261, 1261, 1261, 1261, 1261, 1259, 1259, 1259, 1256, 1256, 1256, 1256, 1254, 1251, 1251, 1251, 1249, 1249, 1249, 1249, 1249, 1249, 1249, 1246, 1246, 1246, 1246, 1246, 1246, 1249, 1249, 1249, 1249, 1249, 1246, 1246, 1246, 1246, 1246, 1246, 1246, 1246, 1246, 1246, 1246, 1246, 1246, 1246, 1246, 1249, 1249, 1249, 1251, 1251, 1251, 1251, 1251, 1254, 1254, 1256, 1259, 1259, 1259, 1261, 1261, 1264, 1264, 1264, 1267, 1267, 1269, 1272, 1272, 1272, 1274, 1274, 1277, 1277, 1277, 1277, 1277, 1277, 1277, 1277, 1277, 1277, 1277, 1277, 1274, 1274, 1274, 1274, 1274, 1274, 1272, 1272, 1272, 1269, 1269, 1269, 1269, 1269, 1269, 1269, 1267, 1267, 1267, 1267, 1267, 1267, 1267, 1267, 1267, 1267, 1269, 1269, 1269, 1269, 1269, 1269, 1272, 1272, 1272, 1272, 1272, 1272, 1272, 1272, 1274, 1274, 1274, 1272, 1272, 1272, 1272, 1272, 1272, 1272, 1269, 1269, 1269, 1269, 1269, 1267, 1267, 1267, 1264, 1264, 1264, 1264, 1261, 1261, 1261, 1259, 1256, 1256, 1254, 1254, 1251, 1249, 1249, 1246, 1241, 1241, 1236, 1236, 1231, 1229, 1229, 1222, 1222, 1219, 1214, 1214, 1210, 1207, 1207, 1205, 1205, 1205, 1205, 1205, 1203, 1203, 1203, 1200, 1200, 1200, 1198, 1198, 1193, 1191, 1191, 1187, 1187, 1184, 1184, 1184, 1184, 1184, 1184, 1184, 1187, 1189, 1189, 1193, 1193, 1198, 1205, 1205, 1212, 1217, 1217, 1222, 1229, 1229, 1234, 1239, 1239, 1241, 1241, 1244, 1246, 1246, 1246, 1246, 1246, 1246, 1244, 1244, 1244, 1241, 1239, 1239, 1239, 1239, 1236, 1234, 1234, 1234, 1231, 1231, 1229, 1229, 1226, 1222, 1222, 1214, 1210, 1210, 1205, 1205, 1200, 1196, 1196, 1193, 1193, 1189, 1187, 1187, 1184, 1184, 1184, 1182, 1182, 1182, 1180, 1180, 1180, 1180, 1182, 1182, 1182, 1182, 1182, 1182, 1182, 1189, 1193, 1193, 1200, 1207, 1207, 1212, 1217, 1217, 1224, 1231, 1231, 1239, 1239, 1244, 1249, 1249, 1251, 1251, 1251, 1254, 1254, 1254, 1254, 1251, 1249, 1249, 1249, 1249, 1249, 1249, 1249, 1249, 1249, 1249, 1249, 1249, 1249, 1249, 1249, 1246, 1246, 1246, 1246, 1246, 1246, 1246, 1246, 1246, 1244, 1244, 1241, 1239, 1239, 1234, 1234, 1229, 1224, 1224, 1219, 1214, 1214, 1210, 1210, 1205, 1198, 1198, 1180, 1180, 1162, 1143, 1143, 1126, 1126, 1108, 1108, 1090, 1075, 1075, 1066, 1066, 1061, 1061, 1061, 1061, 1061, 1061, 1061, 1062, 1062, 1064, 1066, 1066, 1066, 1068, 1068, 1068, 1068, 1068, 1068, 1068, 1068, 1068, 1068, 1068, 1068, 1068, 1068, 1068, 1068, 1068, 1066, 1066, 1066, 1064, 1064, 1064, 1062, 1062, 1061, 1061, 1061, 1061, 1061, 1061, 1059, 1059, 1059, 1059, 1061, 1061, 1062, 1062, 1062, 1062, 1062, 1062, 1064, 1064, 1064, 1066, 1066, 1066, 1066, 1066, 1066, 1066, 1066, 1066, 1066, 1066, 1064, 1064, 1064, 1062, 1061, 1061, 1059, 1059, 1059, 1059, 1059, 1059, 1059, 1059, 1059, 1059, 1059, 1059, 1059, 1059, 1059, 1059, 1059, 1057, 1057, 1057, 1057
1272, 1272, 1272, 1272, 1272, 1272, 1272, 1269, 1269, 1269, 1269, 1269, 1267, 1264, 1264, 1264, 1264, 1264, 1261, 1261, 1261, 1259, 1259, 1259, 1259, 1259, 1259, 1259, 1259, 1259, 1259, 1259, 1259, 1261, 1261, 1261, 1261, 1264, 1264, 1264, 1264, 1264, 1264, 1264, 1264, 1264, 1264, 1264, 1261, 1261, 1261, 1259, 1259, 1256, 1256, 1254, 1254, 1254, 1251, 1251, 1251, 1249, 1249, 1249, 1249, 1249, 1246, 1246, 1246, 1246, 1246, 1246, 1249, 1249, 1249, 1249, 1249, 1249, 1246, 1246, 1246, 1246, 1246, 1246, 1246, 1246, 1246, 1246, 1246, 1246, 1246, 1246, 1249, 1249, 1249, 1251, 1251, 1251, 1251, 1251, 1254, 1254, 1256, 1259, 1259, 1259, 1261, 1261, 1264, 1267, 1267, 1269, 1269, 1269, 1272, 1272, 1274, 1274, 1274, 1277, 1277, 1277, 1277, 1277, 1277, 1277, 1277, 1277, 1277, 1277, 1277, 1274, 1274, 1274, 1274, 1274, 1274, 1272, 1272, 1272, 1269, 1269, 1269, 1269, 1269, 1269, 1269, 1267, 1267, 1267, 1267, 1267, 1267, 1267, 1267, 1267, 1267, 1269, 1269, 1269, 1269, 1269, 1269, 1272, 1272, 1272, 1272, 1272, 1272, 1272, 1274, 1274, 1274, 1274, 1274, 1272, 1272, 1272, 1272, 1272, 1272, 1269, 1269, 1269, 1269, 1269, 1267, 1267, 1267, 1264, 1264, 1264, 1264, 1261, 1261, 1261, 1259, 1256, 1256, 1254, 1254, 1251, 1249, 1249, 1244, 1241, 1241, 1236, 1236, 1231, 1226, 1226, 1222, 1222, 1217, 1212, 1212, 1210, 1207, 1207, 1205, 1205, 1203, 1203, 1203, 1203, 1200, 1200, 1200, 1200, 1198, 1196, 1196, 1193, 1191, 1191, 1187, 1187, 1184, 1184, 1184, 1184, 1184, 1184, 1184, 1187, 1189, 1189, 1191, 1191, 1196, 1203, 1203, 1210, 1217, 1217, 1222, 1229, 1229, 1231, 1231, 1236, 1241, 1241, 1244, 1244, 1244, 1246, 1246, 1244, 1244, 1244, 1241, 1241, 1241, 1239, 1239, 1236, 1236, 1236, 1234, 1234, 1231, 1229, 1229, 1226, 1226, 1224, 1222, 1222, 1214, 1210, 1210, 1205, 1205, 1200, 1196, 1196, 1193, 1191, 1189, 1187, 1187, 1184, 1184, 1184, 1182, 1182, 1182, 1180, 1180, 1180, 1180, 1182, 1182, 1182, 1182, 1182, 1182, 1182, 1187, 1191, 1191, 1196, 1205, 1205, 1210, 1217, 1217, 1222, 1229, 1229, 1236, 1236, 1241, 1246, 1246, 1249, 1251, 1251, 1251, 1251, 1251, 1251, 1251, 1249, 1249, 1249, 1246, 1246, 1246, 1246, 1246, 1249, 1249, 1249, 1246, 1246, 1246, 1246, 1246, 1246, 1246, 1246, 1246, 1246, 1244, 1244, 1246, 1244, 1244, 1241, 1239, 1239, 1234, 1234, 1229, 1224, 1224, 1219, 1214, 1214, 1210, 1210, 1205, 1198, 1198, 1180, 1180, 1162, 1145, 1145, 1126, 1126, 1108, 1108, 1090, 1077, 1077, 1066, 1066, 1061, 1059, 1059, 1059, 1061, 1061, 1061, 1062, 1062, 1062, 1064, 1064, 1064, 1066, 1066, 1066, 1066, 1066, 1066, 1066, 1068, 1068, 1068, 1068, 1068, 1068, 1068, 1068, 1068, 1068, 1066, 1066, 1066, 1064, 1064, 1064, 1062, 1062, 1061, 1061, 1061, 1061, 1061, 1061, 1059, 1059, 1059, 1059, 1061, 1061, 1062, 1062, 1062, 1062, 1062, 1062, 1064, 1064, 1064, 1066, 1066, 1066, 1066, 1068, 1068, 1068, 1066, 1066, 1066, 1066, 1066, 1064, 1064, 1062, 1061, 1061, 1059, 1059, 1059, 1059, 1059, 1059, 1059, 1059, 1059, 1059, 1059, 1059, 1061, 1061, 1059, 1059, 1059, 1059, 1059, 1059, 1059
1272, 1272, 1272, 1272, 1272, 1272, 1272, 1272, 1272, 1269, 1269, 1269, 1267, 1267, 1267, 1264, 1264, 1264, 1261, 1261, 1261, 1259, 1259, 1259, 1259, 1259, 1259, 1259, 1259, 1259, 1261, 1261, 1261, 1261, 1261, 1261, 1261, 1264, 1264, 1264, 1264, 1264, 1264, 1264, 1264, 1264, 1264, 1264, 1261, 1261, 1261, 1259, 1259, 1256, 1256, 1254, 1254, 1254, 1251, 1251, 1251, 1249, 1249, 1249, 1249, 1249, 1246, 1246, 1246, 1246, 1246, 1246, 1249, 1249, 1249, 1249, 1249, 1249, 1246, 1246, 1246, 1246, 1246, 1246, 1246, 1246, 1246, 1246, 1246, 1246, 1246, 1246, 1246, 1246, 1249, 1249, 1249, 1249, 1251, 1251, 1251, 1251, 1254, 1259, 1259, 1259, 1261, 1261, 1264, 1267, 1267, 1269, 1269, 1269, 1272, 1272, 1274, 1274, 1274, 1277, 1277, 1274, 1274, 1274, 1277, 1277, 1274, 1274, 1274, 1274, 1274, 1274, 1274, 1274, 1272, 1272, 1272, 1272, 1272, 1269, 1269, 1269, 1269, 1269, 1269, 1269, 1269, 1267, 1267, 1267, 1267, 1267, 1267, 1267, 1267, 1267, 1267, 1269, 1269, 1269, 1269, 1269, 1269, 1272, 1272, 1272, 1272, 1272, 1272, 1272, 1274, 1274, 1274, 1274, 1274, 1274, 1274, 1274, 1272, 1272, 1272, 1272, 1272, 1272, 1272, 1269, 1269, 1269, 1267, 1267, 1267, 1264, 1264, 1264, 1261, 1261, 1259, 1256, 1256, 1254, 1254, 1251, 1249, 1249, 1244, 1241, 1241, 1236, 1236, 1231, 1226, 1226, 1222, 1222, 1217, 1212, 1212, 1207, 1207, 1207, 1205, 1205, 1203, 1203, 1203, 1200, 1198, 1198, 1198, 1198, 1196, 1193, 1193, 1193, 1189, 1189, 1187, 1187, 1184, 1184, 1184, 1184, 1184, 1184, 1184, 1187, 1189, 1189, 1191, 1191, 1196, 1203, 1203, 1210, 1214, 1214, 1222, 1226, 1226, 1231, 1231, 1236, 1239, 1239, 1244, 1244, 1244, 1244, 1244, 1244, 1244, 1241, 1241, 1241, 1239, 1239, 1239, 1236, 1236, 1236, 1234, 1234, 1231, 1229, 1229, 1226, 1226, 1224, 1222, 1222, 1214, 1210, 1210, 1205, 1205, 1200, 1198, 1198, 1193, 1191, 1191, 1187, 1187, 1187, 1187, 1187, 1184, 1182, 1182, 1180, 1180, 1180, 1180, 1182, 1182, 1182, 1182, 1182, 1182, 1182, 1187, 1191, 1191, 1196, 1205, 1205, 1210, 1217, 1217, 1222, 1229, 1229, 1236, 1236, 1241, 1246, 1246, 1249, 1251, 1251, 1251, 1251, 1251, 1251, 1251, 1249, 1249, 1249, 1246, 1246, 1246, 1246, 1246, 1249, 1249, 1249, 1246, 1246, 1246, 1246, 1246, 1246, 1246, 1246, 1246, 1246, 1244, 1244, 1246, 1244, 1244, 1241, 1239, 1239, 1234, 1234, 1229, 1226, 1226, 1222, 1217, 1217, 1210, 1210, 1205, 1200, 1200, 1182, 1182, 1164, 1145, 1145, 1145, 0, 1108, 1108, 1092, 1077, 1077, 1066, 1066, 1061, 1059, 1059, 1059, 1061, 1061, 1061, 1062, 1062, 1062, 1064, 1064, 1064, 1066, 1066, 1066, 1066, 1066, 1066, 1066, 1066, 1066, 1066, 1066, 1066, 1066, 1066, 1066, 1066, 1066, 1066, 1066, 1066, 1064, 1064, 1064, 1062, 1062, 1061, 1061, 1061, 1061, 1061, 1061, 1059, 1059, 1059, 1059, 1061, 1061, 1062, 1062, 1062, 1062, 1062, 1062, 1064, 1064, 1064, 1066, 1066, 1066, 1066, 1068, 1068, 1068, 1066, 1066, 1066, 1066, 1066, 1064, 1064, 1062, 1061, 1061, 1059, 1059, 1059, 1059, 1059, 1059, 1059, 1059, 1059, 1059, 1059, 1059, 1061, 1061, 1059, 1059, 1059, 1059, 1059, 1059, 1059
1272, 1272, 1272, 1272, 1272, 1272, 1272, 1272, 1272, 1269, 1269, 1269, 1267, 1267, 1267, 1264, 1264, 1264, 1261, 1261, 1261, 1259, 1259, 1259, 1259, 1259, 1259, 1259, 1259, 1259, 1261, 1261, 1261, 1261, 1261, 1264, 1264, 1264, 1267, 1267, 1267, 1267, 1267, 1267, 1267, 1267, 1267, 1267, 1264, 1264, 1264, 1261, 1261, 1259, 1259, 1256, 1254, 1254, 1254, 1251, 1251, 1251, 1251, 1249, 1249, 1249, 1249, 1249, 1249, 1249, 1249, 1249, 1249, 1249, 1249, 1249, 1249, 1249, 1249, 1249, 1249, 1249, 1246, 1246, 1246, 1246, 1246, 1246, 1246, 1246, 1246, 1246, 1246, 1246, 1249, 1249, 1249, 1249, 1251, 1251, 1251, 1251, 1254, 1259, 1259, 1259, 1261, 1261, 1264, 1267, 1267, 1269, 1269, 1269, 1272, 1272, 1274, 1274, 1274, 1274, 1274, 1274, 1274, 1274, 1274, 1274, 1274, 1272, 1272, 1272, 1272, 1272, 1272, 1272, 1272, 1272, 1272, 1272, 1272, 1269, 1269, 1269, 1269, 1269, 1269, 1269, 1269, 1267, 1267, 1267, 1267, 1267, 1269, 1269, 1269, 1269, 1269, 1269, 1269, 1269, 1269, 1269, 1269, 1272, 1272, 1274, 1274, 1274, 1274, 1274, 1274, 1274, 1274, 1274, 1274, 1274, 1277, 1274, 1274, 1274, 1274, 1272, 1272, 1272, 1272, 1269, 1269, 1269, 1267, 1267, 1267, 1264, 1264, 1264, 1261, 1261, 1259, 1256, 1256, 1254, 1254, 1251, 1249, 1249, 1246, 1241, 1241, 1236, 1236, 1231, 1229, 1229, 1222, 1222, 1217, 1212, 1212, 1207, 1207, 1207, 1205, 1205, 1203, 1203, 1203, 1200, 1198, 1198, 1198, 1198, 1196, 1193, 1193, 1193, 1189, 1189, 1187, 1187, 1184, 1184, 1184, 1184, 1184, 1184, 1184, 1187, 1189, 1189, 1191, 1191, 1196, 1203, 1203, 1210, 1214, 1214, 1222, 1226, 1226, 1231, 1231, 1236, 1239, 1239, 1244, 1244, 1244, 1244, 1244, 1244, 1244, 1241, 1241, 1241, 1239, 1239, 1239, 1236, 1236, 1236, 1234, 1234, 1231, 1229, 1229, 1226, 1226, 1224, 1222, 1222, 1214, 1210, 1210, 1205, 1205, 1200, 1198, 1198, 1193, 1191, 1191, 1187, 1187, 1187, 1184, 1184, 1182, 1182, 1182, 1180, 1180, 1180, 1180, 1180, 1180, 1180, 1180, 1180, 1180, 1180, 1184, 1189, 1189, 1193, 1200, 1200, 1207, 1214, 1214, 1222, 1229, 1229, 1236, 1236, 1241, 1246, 1246, 1249, 1251, 1251, 1251, 1251, 1251, 1251, 1251, 1249, 1249, 1246, 1246, 1246, 1246, 1246, 1246, 1246, 1246, 1246, 1246, 1246, 1246, 1246, 1246, 1246, 1246, 1246, 1246, 1246, 1244, 1244, 1246, 1244, 1244, 1241, 1239, 1239, 1234, 1234, 1229, 1226, 1226, 1222, 1217, 1217, 1210, 1210, 1205, 1200, 1200, 1182, 1182, 1164, 1145, 1145, 1145, 0, 1108, 1108, 1092, 1077, 1077, 1066, 1066, 1061, 1059, 1059, 1059, 1059, 1059, 1059, 1061, 1061, 1061, 1062, 1062, 1062, 1062, 1062, 1064, 1064, 1064, 1064, 1064, 1064, 1064, 1064, 1064, 1064, 1064, 1064, 1064, 1064, 1066, 1066, 1066, 1066, 1064, 1064, 1064, 1062, 1062, 1062, 1061, 1061, 1061, 1061, 1061, 1061, 1061, 1061, 1061, 1061, 1061, 1061, 1062, 1062, 1062, 1062, 1062, 1064, 1064, 1064, 1066, 1066, 1068, 1068, 1068, 1068, 1068, 1068, 1068, 1066, 1066, 1066, 1064, 1064, 1062, 1061, 1061, 1059, 1059, 1059, 1059, 1059, 1059, 1059, 1061, 1061, 1061, 1062, 1062, 1062, 1062, 1062, 1062, 1062, 1062, 1062, 1061, 1061
1272, 1272, 1274, 1274, 1274, 1274, 1274, 1272, 1272, 1272, 1269, 1269, 1269, 1267, 1267, 1264, 1264, 1264, 1261, 1261, 1261, 1259, 1259, 1259, 1259, 1259, 1259, 1259, 1259, 1261, 1261, 1261, 1264, 1264, 1264, 1267, 1267, 1267, 1269, 1269, 1269, 1272, 1272, 1269, 1269, 1269, 1269, 1269, 1267, 1267, 1267, 1264, 1264, 1261, 1261, 1259, 1256, 1256, 1256, 1254, 1254, 1254, 1254, 1254, 1251, 1251, 1251, 1249, 1249, 1249, 1249, 1249, 1249, 1251, 1251, 1251, 1251, 1249, 1249, 1249, 1249, 1249, 1249, 1249, 1249, 1249, 1246, 1246, 1246, 1246, 1246, 1246, 1249, 1249, 1249, 1251, 1251, 1251, 1251, 1251, 1254, 1254, 1256, 1259, 1259, 1261, 1264, 1264, 1264, 1267, 1267, 1269, 1269, 1272, 1272, 1272, 1274, 1274, 1274, 1274, 1274, 1274, 1274, 1274, 1274, 1274, 1274, 1272, 1272, 1272, 1272, 1272, 1272, 1272, 1272, 1272, 1272, 1272, 1272, 1269, 1269, 1269, 1269, 1269, 1269, 1269, 1269, 1267, 1267, 1267, 1267, 1267, 1269, 1269, 1269, 1269, 1269, 1269, 1269, 1269, 1269, 1269, 1269, 1272, 1272, 1274, 1274, 1274, 1274, 1274, 1274, 1274, 1274, 1274, 1274, 1274, 1277, 1274, 1274, 1274, 1274, 1272, 1272, 1272, 1272, 1269, 1267, 1267, 1267, 1264, 1264, 1264, 1264, 1261, 1261, 1261, 1259, 1256, 1256, 1254, 1254, 1251, 1249, 1249, 1244, 1239, 1239, 1234, 1234, 1231, 1226, 1226, 1222, 1222, 1217, 1212, 1212, 1207, 1205, 1205, 1203, 1203, 1200, 1200, 1200, 1198, 1198, 1198, 1196, 1196, 1196, 1193, 1193, 1191, 1189, 1189, 1187, 1187, 1184, 1184, 1184, 1184, 1184, 1184, 1184, 1187, 1189, 1189, 1191, 1191, 1196, 1203, 1203, 1207, 1214, 1214, 1222, 1226, 1226, 1229, 1229, 1236, 1239, 1239, 1241, 1244, 1244, 1244, 1244, 1241, 1241, 1241, 1241, 1241, 1239, 1239, 1239, 1236, 1236, 1236, 1234, 1234, 1231, 1229, 1229, 1226, 1226, 1226, 1222, 1222, 1217, 1210, 1210, 1207, 1207, 1203, 1198, 1198, 1193, 1191, 1191, 1189, 1189, 1187, 1184, 1184, 1182, 1182, 1182, 1180, 1180, 1180, 1180, 1180, 1178, 1175, 1175, 1175, 1178, 1178, 1180, 1184, 1184, 1191, 1198, 1198, 1207, 1212, 1212, 1219, 1229, 1229, 1236, 1236, 1241, 1246, 1246, 1249, 1251, 1251, 1251, 1251, 1251, 1251, 1249, 1249, 1249, 1246, 1246, 1246, 1246, 1246, 1246, 1246, 1246, 1246, 1246, 1246, 1246, 1246, 1246, 1246, 1246, 1246, 1246, 1246, 1246, 1246, 1246, 1244, 1244, 1241, 1239, 1239, 1234, 1234, 1231, 1229, 1229, 1224, 1219, 1219, 1212, 1212, 1207, 1203, 1203, 1184, 1184, 1166, 1147, 1147, 1147, 0, 1110, 1110, 1092, 1077, 1077, 1066, 1066, 1061, 1059, 1059, 1059, 1059, 1059, 1059, 1061, 1061, 1061, 1062, 1062, 1062, 1062, 1062, 1064, 1064, 1064, 1064, 1064, 1064, 1064, 1064, 1064, 1064, 1064, 1064, 1064, 1064, 1066, 1066, 1066, 1066, 1064, 1064, 1064, 1062, 1062, 1062, 1062, 1062, 1062, 1062, 1061, 1061, 1061, 1061, 1061, 1061, 1061, 1061, 1062, 1062, 1062, 1062, 1062, 1064, 1064, 1064, 1066, 1066, 1068, 1068, 1068, 1068, 1068, 1068, 1068, 1066, 1066, 1066, 1064, 1064, 1062, 1061, 1061, 1059, 1059, 1059, 1059, 1059, 1059, 1059, 1061, 1061, 1061, 1062, 1062, 1064, 1064, 1064, 1064, 1064, 1064, 1064, 1064, 1064
1272, 1272, 1274, 1274, 1274, 1274, 1274, 1272, 1272, 1272, 1269, 1269, 1269, 1267, 1267, 1264, 1264, 1264, 1261, 1261, 1261, 1259, 1259, 1259, 1259, 1259, 1259, 1259, 1259, 1261, 1261, 1261, 1264, 1264, 1264, 1267, 1267, 1267, 1269, 1269, 1269, 1272, 1272, 1269, 1269, 1269, 1269, 1269, 1267, 1267, 1267, 1264, 1264, 1261, 1261, 1259, 1256, 1256, 1256, 1254, 1254, 1254, 1254, 1254, 1251, 1251, 1251, 1249, 1249, 1249, 1249, 1249, 1249, 1251, 1251, 1251, 1251, 1249, 1249, 1249, 1249, 1249, 1249, 1249, 1249, 1249, 1246, 1246, 1246, 1246, 1246, 1246, 1249, 1249, 1249, 1249, 1249, 1251, 1251, 1251, 1254, 1254, 1256, 1259, 1259, 1261, 1264, 1264, 1264, 1267, 1267, 1269, 1269, 1272, 1272, 1272, 1274, 1274, 1274, 1274, 1274, 1272, 1272, 1272, 1272, 1272, 1272, 1272, 1272, 1272, 1272, 1272, 1272, 1272, 1269, 1269, 1269, 1269, 1269, 1269, 1269, 1269, 1269, 1269, 1269, 1269, 1269, 1267, 1267, 1267, 1267, 1269, 1269, 1269, 1269, 1269, 1269, 1269, 1269, 1269, 1269, 1269, 1269, 1269, 1269, 1272, 1272, 1272, 1272, 1272, 1272, 1274, 1274, 1274, 1274, 1274, 1274, 1274, 1272, 1272, 1272, 1272, 1272, 1269, 1269, 1269, 1267, 1267, 1264, 1264, 1264, 1261, 1261, 1261, 1259, 1259, 1256, 1256, 1256, 1254, 1254, 1251, 1249, 1249, 1244, 1239, 1239, 1234, 1234, 1229, 1226, 1226, 1222, 1222, 1217, 1212, 1212, 1207, 1205, 1205, 1203, 1203, 1200, 1200, 1200, 1196, 1196, 1196, 1193, 1193, 1193, 1191, 1191, 1191, 1189, 1189, 1187, 1187, 1184, 1184, 1184, 1184, 1184, 1184, 1184, 1187, 1189, 1189, 1191, 1191, 1196, 1203, 1203, 1207, 1214, 1214, 1222, 1226, 1226, 1229, 1229, 1236, 1239, 1239, 1241, 1244, 1244, 1244, 1244, 1241, 1241, 1241, 1241, 1241, 1239, 1239, 1239, 1236, 1236, 1236, 1234, 1234, 1231, 1229, 1229, 1226, 1226, 1226, 1222, 1222, 1217, 1212, 1212, 1207, 1207, 1203, 1198, 1198, 1193, 1191, 1191, 1189, 1189, 1187, 1184, 1184, 1182, 1182, 1182, 1180, 1180, 1180, 1180, 1180, 1178, 1175, 1175, 1175, 1178, 1178, 1180, 1184, 1184, 1191, 1198, 1198, 1207, 1212, 1212, 1219, 1229, 1229, 1236, 1236, 1241, 1246, 1246, 1249, 1251, 1251, 1251, 1251, 1251, 1251, 1249, 1249, 1249, 1246, 1246, 1246, 1246, 1246, 1246, 1246, 1246, 1246, 1246, 1246, 1246, 1246, 1246, 1246, 1246, 1246, 1246, 1246, 1246, 1246, 1246, 1244, 1244, 1241, 1239, 1239, 1234, 1234, 1231, 1229, 1229, 1224, 1219, 1219, 1212, 1212, 1207, 1203, 1203, 1184, 1184, 1166, 1147, 1147, 1147, 0, 1110, 1110, 1092, 1077, 1077, 1066, 1066, 1061, 1059, 1059, 1057, 1057, 1057, 1057, 1059, 1059, 1059, 1059, 1059, 1061, 1061, 1061, 1061, 1061, 1061, 1061, 1061, 1061, 1062, 1062, 1062, 1062, 1062, 1064, 1064, 1064, 1064, 1064, 1064, 1066, 1064, 1064, 1064, 1062, 1062, 1062, 1062, 1062, 1062, 1061, 1061, 1061, 1061, 1061, 1061, 1061, 1061, 1061, 1062, 1062, 1062, 1062, 1062, 1064, 1064, 1064, 1066, 1066, 1068, 1068, 1068, 1068, 1068, 1068, 1068, 1066, 1066, 1066, 1064, 1064, 1062, 1061, 1061, 1059, 1059, 1059, 1059, 1059, 1059, 1059, 1061, 1061, 1061, 1062, 1062, 1064, 1064, 1064, 1064, 1064, 1064, 1064, 1064, 1064
1274, 1274, 1274, 1277, 1277, 1274, 1274, 1274, 1274, 1274, 1272, 1272, 1269, 1267, 1267, 1267, 1264, 1264, 1264, 1264, 1261, 1261, 1261, 1261, 1261, 1261, 1261, 1261, 1261, 1264, 1264, 1264, 1264, 1267, 1267, 1269, 1269, 1269, 1272, 1272, 1272, 1274, 1272, 1272, 1272, 1272, 1272, 1272, 1269, 1269, 1269, 1267, 1267, 1264, 1264, 1261, 1259, 1259, 1256, 1256, 1256, 1254, 1254, 1254, 1254, 1254, 1251, 1251, 1251, 1251, 1251, 1251, 1251, 1251, 1251, 1251, 1251, 1251, 1251, 1251, 1251, 1251, 1251, 1251, 1251, 1249, 1249, 1249, 1249, 1249, 1249, 1249, 1249, 1249, 1249, 1249, 1249, 1251, 1251, 1251, 1254, 1254, 1256, 1259, 1259, 1261, 1264, 1264, 1267, 1269, 1269, 1272, 1272, 1272, 1274, 1274, 1274, 1274, 1274, 1274, 1274, 1272, 1272, 1272, 1272, 1272, 1272, 1272, 1272, 1272, 1272, 1272, 1272, 1272, 1269, 1269, 1269, 1269, 1269, 1269, 1269, 1269, 1269, 1269, 1269, 1269, 1269, 1269, 1269, 1269, 1269, 1269, 1269, 1269, 1269, 1269, 1269, 1269, 1269, 1269, 1269, 1269, 1269, 1269, 1269, 1272, 1272, 1272, 1272, 1272, 1272, 1274, 1274, 1274, 1274, 1274, 1274, 1274, 1272, 1272, 1272, 1272, 1272, 1269, 1269, 1269, 1267, 1267, 1264, 1264, 1264, 1261, 1261, 1261, 1259, 1259, 1256, 1256, 1256, 1254, 1254, 1251, 1249, 1249, 1244, 1239, 1239, 1234, 1234, 1229, 1226, 1226, 1222, 1222, 1217, 1212, 1212, 1207, 1205, 1205, 1203, 1203, 1200, 1200, 1200, 1196, 1196, 1196, 1193, 1193, 1193, 1191, 1191, 1189, 1189, 1189, 1187, 1187, 1184, 1184, 1184, 1184, 1184, 1184, 1184, 1187, 1189, 1189, 1191, 1191, 1196, 1200, 1200, 1207, 1214, 1214, 1219, 1224, 1224, 1229, 1229, 1234, 1236, 1236, 1241, 1241, 1241, 1241, 1241, 1241, 1241, 1239, 1239, 1239, 1239, 1239, 1239, 1236, 1236, 1234, 1234, 1234, 1231, 1229, 1229, 1226, 1226, 1226, 1222, 1222, 1217, 1212, 1212, 1207, 1207, 1203, 1198, 1198, 1193, 1191, 1191, 1189, 1189, 1187, 1184, 1184, 1182, 1182, 1182, 1180, 1180, 1178, 1178, 1178, 1175, 1175, 1175, 1175, 1175, 1175, 1180, 1182, 1182, 1189, 1196, 1196, 1205, 1210, 1210, 1217, 1226, 1226, 1234, 1234, 1239, 1244, 1244, 1249, 1249, 1249, 1251, 1251, 1251, 1251, 1249, 1249, 1249, 1246, 1246, 1246, 1246, 1246, 1246, 1246, 1246, 1246, 1246, 1246, 1246, 1246, 1246, 1246, 1246, 1246, 1246, 1246, 1246, 1246, 1246, 1244, 1244, 1241, 1239, 1239, 1236, 1234, 1234, 1229, 1229, 1224, 1219, 1219, 1214, 1214, 1210, 1205, 1205, 1187, 1187, 1169, 1151, 1151, 1151, 0, 1112, 1112, 1094, 1077, 1077, 1064, 1064, 1061, 1057, 1057, 1055, 1055, 1055, 1055, 1055, 1055, 1055, 1057, 1057, 1057, 1057, 1057, 1059, 1059, 1059, 1059, 1059, 1059, 1059, 1059, 1061, 1062, 1062, 1064, 1064, 1064, 1064, 1064, 1064, 1066, 1066, 1066, 1064, 1064, 1064, 1062, 1062, 1062, 1062, 1061, 1061, 1061, 1061, 1061, 1061, 1062, 1062, 1062, 1062, 1062, 1062, 1062, 1064, 1064, 1064, 1066, 1066, 1066, 1068, 1068, 1068, 1070, 1070, 1068, 1068, 1066, 1066, 1066, 1064, 1064, 1062, 1061, 1061, 1059, 1059, 1059, 1059, 1059, 1059, 1061, 1061, 1061, 1062, 1064, 1064, 1066, 1066, 1068, 1068, 1068, 1068, 1068, 1068, 1068
1277, 1277, 1277, 1277, 1277, 1277, 1277, 1277, 1274, 1274, 1272, 1272, 1272, 1269, 1269, 1267, 1267, 1267, 1267, 1267, 1264, 1264, 1264, 1264, 1264, 1267, 1267, 1267, 1267, 1267, 1269, 1269, 1269, 1269, 1269, 1269, 1272, 1272, 1272, 1272, 1274, 1274, 1274, 1274, 1274, 1274, 1274, 1274, 1272, 1272, 1269, 1267, 1267, 1264, 1264, 1261, 1259, 1259, 1256, 1256, 1256, 1254, 1254, 1254, 1254, 1254, 1251, 1251, 1251, 1251, 1251, 1251, 1251, 1251, 1251, 1251, 1251, 1251, 1251, 1251, 1251, 1251, 1251, 1251, 1251, 1251, 1249, 1249, 1249, 1249, 1249, 1249, 1249, 1249, 1249, 1249, 1249, 1251, 1251, 1251, 1254, 1254, 1256, 1259, 1259, 1261, 1264, 1264, 1267, 1269, 1269, 1269, 1269, 1272, 1272, 1272, 1269, 1269, 1269, 1272, 1272, 1269, 1269, 1269, 1269, 1269, 1269, 1269, 1269, 1269, 1269, 1269, 1269, 1269, 1267, 1267, 1267, 1267, 1269, 1269, 1267, 1267, 1267, 1267, 1269, 1269, 1269, 1269, 1269, 1269, 1267, 1267, 1269, 1269, 1267, 1267, 1267, 1269, 1269, 1269, 1269, 1269, 1269, 1269, 1269, 1269, 1269, 1269, 1269, 1269, 1269, 1269, 1269, 1272, 1272, 1269, 1269, 1269, 1269, 1269, 1269, 1269, 1269, 1267, 1267, 1267, 1264, 1264, 1261, 1261, 1261, 1259, 1259, 1259, 1259, 1259, 1256, 1254, 1254, 1251, 1251, 1249, 1246, 1246, 1241, 1239, 1239, 1234, 1234, 1229, 1226, 1226, 1222, 1222, 1217, 1212, 1212, 1207, 1205, 1205, 1203, 1203, 1200, 1198, 1198, 1196, 1193, 1193, 1191, 1191, 1189, 1189, 1189, 1189, 1189, 1189, 1187, 1187, 1184, 1184, 1184, 1184, 1187, 1187, 1187, 1187, 1189, 1189, 1191, 1191, 1196, 1200, 1200, 1207, 1212, 1212, 1219, 1224, 1224, 1226, 1226, 1231, 1236, 1236, 1239, 1241, 1241, 1239, 1239, 1239, 1239, 1239, 1239, 1239, 1239, 1236, 1236, 1236, 1236, 1234, 1234, 1234, 1231, 1229, 1229, 1226, 1226, 1226, 1222, 1222, 1214, 1212, 1212, 1207, 1207, 1203, 1198, 1198, 1193, 1191, 1191, 1187, 1187, 1187, 1184, 1184, 1182, 1180, 1180, 1178, 1178, 1178, 1175, 1175, 1175, 1173, 1173, 1173, 1173, 1173, 1178, 1182, 1182, 1187, 1193, 1193, 1200, 1207, 1207, 1214, 1214, 1224, 1231, 1231, 1239, 1244, 1244, 1249, 1249, 1249, 1251, 1251, 1251, 1251, 1249, 1249, 1249, 1246, 1246, 1246, 1246, 1246, 1246, 1246, 1246, 1246, 1246, 1246, 1246, 1246, 1246, 1246, 1246, 1246, 1246, 1246, 1246, 1246, 1246, 1246, 1246, 1244, 1241, 1241, 1236, 1234, 1234, 1229, 1229, 1226, 1222, 1222, 1217, 1217, 1212, 1207, 1207, 1191, 1191, 1171, 1151, 1151, 1151, 0, 1112, 1112, 1094, 1077, 1077, 1064, 1064, 1061, 1057, 1057, 1055, 1055, 1055, 1055, 1055, 1055, 1055, 1057, 1057, 1057, 1057, 1057, 1059, 1059, 1059, 1059, 1059, 1059, 1059, 1059, 1061, 1062, 1062, 1064, 1064, 1064, 1064, 1064, 1066, 1066, 1066, 1066, 1064, 1064, 1064, 1062, 1062, 1062, 1062, 1062, 1062, 1062, 1062, 1062, 1062, 1062, 1062, 1062, 1064, 1064, 1064, 1064, 1066, 1066, 1066, 1068, 1068, 1068, 1068, 1068, 1070, 1070, 1070, 1070, 1070, 1068, 1068, 1068, 1064, 1064, 1062, 1061, 1061, 1059, 1059, 1059, 1059, 1059, 1059, 1061, 1061, 1061, 1062, 1064, 1064, 1066, 1066, 1068, 1068, 1068, 1068, 1068, 1068, 1068
1277, 1277, 1277, 1277, 1277, 1277, 1277, 1277, 1274, 1274, 1272, 1272, 1272, 1269, 1269, 1267, 1267, 1267, 1267, 1267, 1264, 1264, 1264, 1264, 1264, 1267, 1267, 1267, 1267, 1267, 1269, 1269, 1269, 1269, 1269, 1269, 1272, 1272, 1272, 1272, 1274, 1274, 1274, 1274, 1274, 1274, 1274, 1274, 1272, 1272, 1269, 1267, 1267, 1264, 1264, 1261, 1259, 1259, 1256, 1256, 1256, 1254, 1254, 1254, 1254, 1254, 1251, 1251, 1251, 1251, 1251, 1251, 1251, 1251, 1251, 1251, 1251, 1251, 1251, 1251, 1251, 1251, 1251, 1251, 1251, 1251, 1249, 1249, 1249, 1249, 1249, 1249, 1249, 1249, 1249, 1249, 1249, 1251, 1251, 1251, 1254, 1254, 1254, 1256, 1256, 1261, 1264, 1264, 1264, 1267, 1267, 1267, 1267, 1269, 1269, 1267, 1267, 1267, 1267, 1269, 1269, 1267, 1267, 1267, 1267, 1267, 1267, 1267, 1267, 1267, 1267, 1267, 1267, 1267, 1267, 1267, 1267, 1267, 1267, 1267, 1267, 1267, 1267, 1267, 1267, 1267, 1267, 1267, 1267, 1269, 1267, 1267, 1269, 1269, 1267, 1267, 1267, 1269, 1269, 1269, 1269, 1267, 1267, 1267, 1267, 1267, 1267, 1269, 1269, 1269, 1267, 1267, 1267, 1267, 1267, 1267, 1267, 1267, 1264, 1264, 1264, 1264, 1264, 1264, 1264, 1261, 1261, 1261, 1259, 1259, 1261, 1259, 1259, 1259, 1259, 1259, 1256, 1254, 1254, 1251, 1251, 1249, 1246, 1246, 1241, 1239, 1239, 1234, 1234, 1229, 1226, 1226, 1222, 1222, 1217, 1212, 1212, 1207, 1205, 1205, 1203, 1203, 1200, 1198, 1198, 1196, 1193, 1193, 1191, 1191, 1189, 1189, 1189, 1189, 1189, 1189, 1187, 1187, 1184, 1184, 1184, 1184, 1187, 1187, 1187, 1187, 1191, 1191, 1191, 1191, 1196, 1200, 1200, 1207, 1212, 1212, 1219, 1224, 1224, 1226, 1226, 1231, 1236, 1236, 1239, 1241, 1241, 1239, 1239, 1239, 1239, 1239, 1239, 1239, 1239, 1236, 1236, 1236, 1236, 1234, 1234, 1234, 1231, 1229, 1229, 1226, 1226, 1226, 1222, 1222, 1214, 1212, 1212, 1207, 1207, 1203, 1198, 1198, 1193, 1191, 1191, 1187, 1187, 1187, 1184, 1184, 1182, 1180, 1180, 1178, 1178, 1178, 1175, 1175, 1175, 1173, 1173, 1173, 1173, 1173, 1178, 1182, 1182, 1187, 1193, 1193, 1200, 1207, 1207, 1214, 1214, 1224, 1231, 1231, 1236, 1244, 1244, 1246, 1249, 1249, 1249, 1251, 1251, 1251, 1249, 1249, 1249, 1246, 1244, 1244, 1244, 1244, 1244, 1246, 1246, 1246, 1246, 1246, 1246, 1246, 1246, 1246, 1246, 1246, 1246, 1246, 1246, 1246, 1246, 1246, 1246, 1244, 1241, 1241, 1236, 1234, 1234, 1229, 1229, 1226, 1222, 1222, 1217, 1217, 1212, 1207, 1207, 1191, 1191, 1171, 1151, 1151, 1151, 0, 1112, 1112, 1094, 1077, 1077, 1062, 1062, 1061, 1055, 1055, 1053, 1053, 1053, 1053, 1053, 1053, 1053, 1053, 1053, 1053, 1055, 1055, 1057, 1057, 1057, 1057, 1057, 1057, 1059, 1059, 1061, 1061, 1061, 1062, 1062, 1062, 1064, 1064, 1066, 1066, 1066, 1066, 1064, 1064, 1064, 1062, 1062, 1062, 1062, 1062, 1062, 1062, 1062, 1062, 1062, 1062, 1062, 1062, 1064, 1064, 1064, 1064, 1066, 1066, 1066, 1068, 1068, 1068, 1068, 1068, 1070, 1070, 1070, 1070, 1070, 1068, 1068, 1068, 1064, 1064, 1062, 1061, 1061, 1061, 1061, 1059, 1059, 1059, 1059, 1061, 1061, 1061, 1062, 1064, 1064, 1066, 1066, 1068, 1068, 1068, 1068, 1068, 1068, 1068
1280, 1280, 1280, 1280, 1280, 1280, 1280, 1277, 1277, 1277, 1274, 1274, 1274, 1272, 1272, 1269, 1269, 1269, 1267, 1267, 1267, 1267, 1267, 1267, 1267, 1269, 1269, 1269, 1269, 1269, 1272, 1272, 1272, 1272, 1272, 1272, 1274, 1274, 1274, 1274, 1277, 1277, 1274, 1274, 1274, 1274, 1274, 1274, 1272, 1272, 1269, 1267, 1267, 1264, 1264, 1261, 1259, 1259, 1259, 1256, 1256, 1256, 1256, 1256, 1254, 1254, 1254, 1251, 1251, 1251, 1254, 1254, 1254, 1254, 1254, 1254, 1254, 1251, 1251, 1251, 1251, 1251, 1251, 1251, 1251, 1251, 1251, 1251, 1249, 1249, 1249, 1249, 1251, 1249, 1249, 1251, 1251, 1251, 1251, 1251, 1254, 1254, 1254, 1256, 1256, 1261, 1264, 1264, 1264, 1267, 1267, 1267, 1267, 1269, 1269, 1267, 1267, 1267, 1267, 1269, 1269, 1267, 1267, 1267, 1267, 1267, 1267, 1267, 1267, 1267, 1267, 1267, 1267, 1267, 1267, 1267, 1267, 1267, 1267, 1267, 1267, 1267, 1267, 1267, 1267, 1267, 1267, 1267, 1267, 1269, 1267, 1267, 1269, 1269, 1269, 1269, 1269, 1269, 1269, 1269, 1269, 1267, 1267, 1267, 1267, 1267, 1267, 1269, 1269, 1269, 1267, 1267, 1267, 1267, 1267, 1267, 1267, 1267, 1264, 1264, 1264, 1264, 1264, 1264, 1264, 1261, 1261, 1261, 1259, 1259, 1259, 1256, 1256, 1256, 1256, 1256, 1254, 1251, 1251, 1249, 1249, 1246, 1244, 1244, 1241, 1239, 1239, 1234, 1234, 1229, 1226, 1226, 1222, 1219, 1217, 1212, 1212, 1207, 1205, 1205, 1203, 1203, 1198, 1198, 1198, 1193, 1191, 1191, 1189, 1189, 1189, 1187, 1187, 1187, 1187, 1189, 1187, 1187, 1184, 1184, 1184, 1184, 1187, 1187, 1187, 1187, 1191, 1191, 1191, 1191, 1196, 1200, 1200, 1207, 1212, 1212, 1219, 1224, 1224, 1226, 1226, 1231, 1234, 1234, 1239, 1239, 1239, 1239, 1239, 1239, 1239, 1239, 1239, 1239, 1239, 1236, 1236, 1236, 1236, 1234, 1234, 1234, 1231, 1229, 1229, 1226, 1226, 1226, 1219, 1219, 1214, 1212, 1212, 1207, 1207, 1200, 1196, 1196, 1193, 1189, 1189, 1187, 1187, 1184, 1182, 1182, 1180, 1180, 1180, 1178, 1178, 1175, 1175, 1175, 1173, 1171, 1171, 1171, 1171, 1171, 1175, 1180, 1180, 1184, 1191, 1191, 1198, 1205, 1205, 1212, 1212, 1222, 1229, 1229, 1234, 1241, 1241, 1246, 1246, 1246, 1249, 1249, 1249, 1249, 1249, 1249, 1249, 1246, 1244, 1244, 1244, 1244, 1244, 1246, 1246, 1246, 1246, 1246, 1246, 1246, 1246, 1246, 1246, 1246, 1246, 1246, 1246, 1246, 1246, 1246, 1246, 1244, 1241, 1241, 1239, 1236, 1236, 1231, 1231, 1229, 1224, 1224, 1219, 1219, 1214, 1212, 1212, 1193, 1193, 1173, 1153, 1153, 1134, 1134, 1114, 1096, 1094, 1077, 1077, 1062, 1062, 1061, 1055, 1055, 1053, 1053, 1053, 1053, 1053, 1052, 1052, 1052, 1052, 1053, 1053, 1053, 1055, 1055, 1055, 1055, 1055, 1057, 1057, 1057, 1061, 1061, 1061, 1062, 1062, 1062, 1064, 1064, 1066, 1066, 1066, 1066, 1066, 1064, 1064, 1064, 1064, 1064, 1064, 1062, 1062, 1062, 1062, 1062, 1062, 1064, 1064, 1064, 1066, 1066, 1066, 1066, 1068, 1068, 1068, 1068, 1068, 1068, 1070, 1070, 1070, 1070, 1070, 1070, 1070, 1068, 1068, 1068, 1066, 1066, 1064, 1062, 1062, 1061, 1061, 1061, 1061, 1061, 1061, 1061, 1062, 1062, 1064, 1066, 1066, 1068, 1068, 1070, 1070, 1070, 1070, 1070, 1070, 1070
1280, 1282, 1280, 1280, 1280, 1280, 1280, 1280, 1280, 1280, 1277, 1277, 1274, 1272, 1272, 1272, 1269, 1269, 1269, 1269, 1267, 1267, 1269, 1269, 1269, 1269, 1269, 1269, 1269, 1272, 1272, 1272, 1274, 1274, 1274, 1274, 1274, 1274, 1277, 1277, 1277, 1277, 1277, 1277, 1277, 1274, 1274, 1274, 1272, 1272, 1269, 1267, 1267, 1264, 1264, 1261, 1259, 1259, 1259, 1256, 1256, 1256, 1256, 1256, 1254, 1254, 1254, 1251, 1251, 1251, 1254, 1254, 1254, 1254, 1254, 1254, 1254, 1251, 1251, 1251, 1251, 1251, 1251, 1251, 1251, 1251, 1251, 1251, 1249, 1249, 1249, 1249, 1251, 1249, 1249, 1251, 1251, 1251, 1251, 1251, 1251, 1251, 1254, 1256, 1256, 1261, 1261, 1261, 1264, 1264, 1264, 1267, 1267, 1267, 1267, 1267, 1267, 1267, 1267, 1267, 1267, 1264, 1264, 1264, 1264, 1264, 1264, 1264, 1264, 1264, 1264, 1264, 1264, 1264, 1264, 1264, 1264, 1264, 1264, 1264, 1264, 1264, 1264, 1264, 1267, 1267, 1267, 1267, 1267, 1267, 1267, 1267, 1267, 1267, 1267, 1267, 1267, 1267, 1267, 1267, 1267, 1267, 1267, 1267, 1267, 1267, 1267, 1267, 1267, 1264, 1264, 1264, 1264, 1264, 1264, 1264, 1264, 1261, 1261, 1261, 1259, 1259, 1261, 1259, 1259, 1259, 1256, 1256, 1256, 1256, 1256, 1254, 1254, 1254, 1254, 1254, 1251, 1249, 1249, 1249, 1249, 1246, 1244, 1244, 1241, 1236, 1236, 1234, 1234, 1229, 1226, 1226, 1222, 1219, 1219, 1212, 1212, 1207, 1205, 1205, 1203, 1203, 1198, 1198, 1198, 1193, 1191, 1191, 1187, 1187, 1187, 1187, 1187, 1187, 1187, 1187, 1184, 1184, 1184, 1184, 1187, 1187, 1187, 1187, 1187, 1189, 1191, 1191, 1193, 1193, 1196, 1203, 1203, 1207, 1212, 1212, 1219, 1224, 1224, 1226, 1226, 1231, 1234, 1234, 1236, 1239, 1239, 1239, 1239, 1239, 1239, 1239, 1239, 1239, 1239, 1236, 1236, 1236, 1236, 1234, 1234, 1234, 1231, 1229, 1229, 1226, 1226, 1226, 1219, 1219, 1214, 1212, 1212, 1207, 1207, 1200, 1196, 1196, 1193, 1189, 1189, 1187, 1187, 1184, 1182, 1182, 1180, 1180, 1180, 1178, 1178, 1175, 1175, 1175, 1173, 1171, 1171, 1171, 1171, 1171, 1175, 1180, 1180, 1184, 1191, 1191, 1198, 1205, 1205, 1212, 1212, 1222, 1229, 1229, 1234, 1241, 1241, 1246, 1246, 1246, 1249, 1249, 1249, 1249, 1249, 1249, 1249, 1246, 1246, 1246, 1244, 1244, 1244, 1246, 1246, 1246, 1246, 1246, 1246, 1246, 1246, 1246, 1246, 1246, 1246, 1246, 1246, 1249, 1249, 1246, 1246, 1244, 1241, 1241, 1239, 1236, 1236, 1234, 1234, 1229, 1226, 1226, 1222, 1222, 1217, 1214, 1214, 1198, 1198, 1178, 1156, 1156, 1134, 1134, 1114, 1096, 1096, 1077, 1077, 1062, 1062, 1061, 1055, 1055, 1053, 1053, 1053, 1053, 1053, 1052, 1052, 1052, 1052, 1053, 1053, 1053, 1055, 1055, 1055, 1055, 1055, 1057, 1057, 1057, 1061, 1061, 1061, 1062, 1062, 1064, 1066, 1066, 1066, 1066, 1066, 1066, 1066, 1064, 1064, 1064, 1064, 1064, 1064, 1062, 1062, 1062, 1062, 1062, 1062, 1064, 1064, 1064, 1066, 1066, 1066, 1066, 1068, 1068, 1068, 1068, 1068, 1068, 1070, 1070, 1070, 1070, 1070, 1070, 1070, 1068, 1068, 1068, 1066, 1066, 1064, 1062, 1062, 1061, 1061, 1061, 1061, 1061, 1061, 1061, 1062, 1062, 1064, 1066, 1066, 1068, 1068, 1070, 1070, 1070, 1070, 1070, 1070, 1070
1280, 1280, 1280, 1280, 1280, 1280, 1280, 1280, 1280, 1280, 1277, 1277, 1274, 1272, 1272, 1272, 1269, 1269, 1269, 1269, 1267, 1267, 1269, 1269, 1269, 1269, 1269, 1269, 1269, 1272, 1272, 1272, 1274, 1274, 1274, 1274, 1274, 1274, 1277, 1277, 1277, 1277, 1277, 1277, 1277, 1274, 1274, 1274, 1272, 1272, 1269, 1269, 1269, 1267, 1267, 1264, 1261, 1261, 1259, 1259, 1259, 1259, 1259, 1259, 1256, 1256, 1256, 1254, 1254, 1254, 1256, 1256, 1256, 1256, 1256, 1254, 1254, 1254, 1254, 1254, 1254, 1254, 1254, 1251, 1251, 1251, 1251, 1251, 1251, 1251, 1251, 1251, 1251, 1251, 1251, 1251, 1251, 1251, 1251, 1251, 1251, 1251, 1254, 1256, 1256, 1259, 1261, 1261, 1261, 1264, 1264, 1264, 1264, 1264, 1264, 1264, 1264, 1264, 1264, 1264, 1264, 1261, 1261, 1259, 1259, 1259, 1259, 1259, 1259, 1261, 1261, 1261, 1261, 1261, 1261, 1261, 1261, 1261, 1264, 1264, 1264, 1264, 1264, 1264, 1267, 1267, 1267, 1267, 1267, 1267, 1267, 1267, 1267, 1267, 1267, 1267, 1267, 1267, 1267, 1267, 1267, 1267, 1267, 1267, 1267, 1267, 1267, 1267, 1267, 1264, 1264, 1264, 1264, 1264, 1264, 1264, 1264, 1261, 1261, 1261, 1259, 1259, 1261, 1259, 1259, 1259, 1256, 1256, 1256, 1256, 1256, 1254, 1254, 1254, 1254, 1254, 1251, 1249, 1249, 1249, 1249, 1246, 1244, 1244, 1241, 1236, 1236, 1234, 1234, 1229, 1226, 1226, 1222, 1219, 1219, 1214, 1214, 1210, 1205, 1205, 1203, 1203, 1198, 1198, 1198, 1193, 1191, 1191, 1187, 1187, 1187, 1187, 1187, 1187, 1187, 1187, 1184, 1184, 1184, 1184, 1187, 1187, 1187, 1187, 1187, 1189, 1193, 1193, 1193, 1193, 1196, 1203, 1203, 1207, 1212, 1212, 1219, 1224, 1224, 1226, 1226, 1231, 1234, 1234, 1236, 1239, 1239, 1239, 1239, 1239, 1239, 1239, 1239, 1239, 1239, 1236, 1236, 1236, 1236, 1234, 1234, 1234, 1231, 1229, 1229, 1226, 1226, 1226, 1219, 1219, 1214, 1210, 1210, 1205, 1205, 1200, 1196, 1196, 1191, 1189, 1189, 1184, 1184, 1182, 1182, 1182, 1180, 1180, 1180, 1175, 1175, 1173, 1173, 1173, 1173, 1171, 1171, 1171, 1171, 1171, 1173, 1178, 1178, 1182, 1189, 1189, 1198, 1203, 1203, 1212, 1212, 1219, 1229, 1229, 1234, 1241, 1241, 1244, 1246, 1246, 1249, 1249, 1249, 1249, 1249, 1249, 1249, 1246, 1244, 1244, 1244, 1244, 1244, 1244, 1246, 1246, 1246, 1246, 1246, 1246, 1246, 1246, 1246, 1246, 1246, 1246, 1246, 1249, 1249, 1246, 1246, 1244, 1241, 1241, 1239, 1236, 1236, 1234, 1234, 1229, 1226, 1226, 1222, 1222, 1217, 1214, 1214, 1198, 1198, 1178, 1156, 1156, 1134, 1134, 1114, 1096, 1096, 1077, 1077, 1062, 1062, 1061, 1055, 1055, 1053, 1053, 1053, 1052, 1052, 1052, 1052, 1052, 1052, 1052, 1053, 1053, 1055, 1055, 1055, 1055, 1055, 1057, 1057, 1057, 1061, 1061, 1061, 1062, 1062, 1064, 1066, 1066, 1066, 1066, 1066, 1066, 1066, 1064, 1064, 1064, 1064, 1064, 1064, 1062, 1062, 1062, 1062, 1062, 1064, 1064, 1064, 1064, 1066, 1066, 1068, 1068, 1068, 1070, 1070, 1070, 1070, 1070, 1070, 1070, 1070, 1070, 1070, 1070, 1070, 1068, 1068, 1068, 1066, 1066, 1064, 1062, 1062, 1062, 1061, 1061, 1061, 1061, 1061, 1062, 1064, 1064, 1066, 1066, 1066, 1068, 1068, 1070, 1070, 1070, 1068, 1068, 1068, 1068
1280, 1280, 1280, 1280, 1280, 1280, 1280, 1280, 1280, 1280, 1280, 1280, 1274, 1274, 1274, 1272, 1272, 1272, 1269, 1269, 1269, 1269, 1272, 1272, 1272, 1272, 1272, 1274, 1274, 1274, 1274, 1274, 1274, 1277, 1277, 1277, 1277, 1277, 1277, 1277, 1277, 1277, 1277, 1277, 1277, 1277, 1277, 1274, 1272, 1272, 1269, 1269, 1269, 1267, 1267, 1264, 1261, 1261, 1261, 1261, 1261, 1261, 1261, 1261, 1259, 1259, 1259, 1259, 1259, 1259, 1259, 1259, 1259, 1259, 1256, 1256, 1256, 1256, 1254, 1254, 1254, 1254, 1254, 1254, 1254, 1254, 1251, 1251, 1251, 1251, 1251, 1251, 1251, 1251, 1251, 1251, 1251, 1251, 1254, 1254, 1254, 1254, 1254, 1256, 1256, 1259, 1261, 1261, 1261, 1264, 1264, 1264, 1264, 1264, 1264, 1264, 1264, 1264, 1264, 1264, 1264, 1261, 1261, 1259, 1259, 1259, 1259, 1259, 1259, 1261, 1261, 1261, 1261, 1261, 1261, 1261, 1261, 1261, 1264, 1264, 1264, 1264, 1264, 1267, 1267, 1267, 1267, 1267, 1267, 1267, 1267, 1267, 1267, 1267, 1267, 1267, 1267, 1267, 1264, 1264, 1264, 1264, 1264, 1264, 1264, 1264, 1264, 1261, 1261, 1261, 1261, 1261, 1261, 1261, 1259, 1259, 1259, 1259, 1256, 1256, 1256, 1256, 1256, 1256, 1256, 1254, 1254, 1254, 1251, 1251, 1251, 1251, 1251, 1251, 1251, 1251, 1249, 1249, 1249, 1249, 1249, 1246, 1244, 1244, 1241, 1236, 1236, 1234, 1234, 1229, 1226, 1226, 1222, 1219, 1219, 1214, 1214, 1210, 1205, 1205, 1203, 1203, 1198, 1198, 1198, 1193, 1189, 1189, 1187, 1187, 1187, 1184, 1184, 1184, 1187, 1187, 1184, 1184, 1184, 1184, 1184, 1184, 1184, 1187, 1187, 1189, 1191, 1191, 1193, 1193, 1196, 1203, 1203, 1207, 1212, 1212, 1217, 1222, 1222, 1226, 1226, 1229, 1234, 1234, 1236, 1239, 1239, 1239, 1239, 1239, 1239, 1239, 1239, 1239, 1239, 1236, 1236, 1236, 1236, 1234, 1234, 1234, 1231, 1229, 1229, 1226, 1226, 1226, 1219, 1219, 1214, 1210, 1210, 1205, 1205, 1200, 1196, 1196, 1189, 1187, 1187, 1184, 1184, 1182, 1180, 1180, 1180, 1178, 1178, 1175, 1175, 1173, 1171, 1171, 1171, 1169, 1169, 1169, 1169, 1169, 1173, 1178, 1178, 1182, 1189, 1189, 1198, 1203, 1203, 1210, 1210, 1219, 1226, 1226, 1234, 1241, 1241, 1244, 1246, 1246, 1249, 1249, 1249, 1249, 1249, 1249, 1249, 1246, 1244, 1244, 1244, 1244, 1244, 1244, 1246, 1246, 1246, 1246, 1246, 1246, 1246, 1246, 1246, 1246, 1246, 1246, 1246, 1249, 1249, 1246, 1246, 1244, 1244, 1244, 1241, 1239, 1239, 1234, 1234, 1231, 1229, 1229, 1224, 1222, 1219, 1217, 1217, 1200, 1200, 1178, 1156, 1156, 1134, 1134, 1114, 1096, 1096, 1077, 1077, 1064, 1064, 1061, 1055, 1055, 1053, 1053, 1053, 1052, 1052, 1052, 1052, 1052, 1052, 1052, 1053, 1053, 1055, 1055, 1055, 1055, 1055, 1057, 1059, 1059, 1061, 1062, 1062, 1064, 1064, 1064, 1066, 1066, 1068, 1068, 1068, 1068, 1068, 1066, 1066, 1064, 1064, 1064, 1064, 1064, 1064, 1064, 1064, 1064, 1064, 1066, 1066, 1066, 1068, 1068, 1068, 1068, 1070, 1070, 1070, 1072, 1072, 1072, 1072, 1072, 1072, 1072, 1072, 1070, 1070, 1070, 1068, 1068, 1066, 1066, 1064, 1062, 1062, 1062, 1062, 1062, 1062, 1062, 1062, 1062, 1064, 1064, 1066, 1068, 1068, 1070, 1070, 1070, 1070, 1070, 1068, 1068, 1068, 1068
1280, 1280, 1280, 1280, 1280, 1280, 1280, 1280, 1280, 1280, 1280, 1280, 1274, 1274, 1274, 1272, 1272, 1272, 1269, 1269, 1269, 1269, 1272, 1272, 1272, 1272, 1272, 1274, 1274, 1274, 1274, 1274, 1274, 1277, 1277, 1277, 1277, 1277, 1277, 1277, 1277, 1277, 1277, 1274, 1274, 1274, 1274, 1274, 1272, 1272, 1269, 1269, 1269, 1267, 1267, 1264, 1261, 1261, 1261, 1261, 1261, 1261, 1261, 1261, 1259, 1259, 1259, 1259, 1259, 1259, 1259, 1259, 1259, 1259, 1256, 1256, 1256, 1256, 1254, 1254, 1254, 1254, 1254, 1254, 1254, 1254, 1251, 1251, 1251, 1251, 1251, 1251, 1251, 1251, 1251, 1251, 1251, 1251, 1254, 1254, 1254, 1254, 1254, 1256, 1256, 1259, 1259, 1259, 1261, 1261, 1261, 1261, 1261, 1259, 1259, 1259, 1259, 1259, 1259, 1259, 1259, 1256, 1256, 1256, 1256, 1256, 1256, 1256, 1256, 1256, 1259, 1259, 1259, 1259, 1259, 1261, 1261, 1261, 1261, 1261, 1264, 1264, 1264, 1264, 1267, 1267, 1267, 1267, 1267, 1267, 1267, 1267, 1267, 1267, 1267, 1267, 1264, 1264, 1264, 1264, 1264, 1261, 1261, 1261, 1261, 1261, 1259, 1259, 1259, 1259, 1259, 1259, 1256, 1256, 1256, 1254, 1254, 1254, 1251, 1251, 1251, 1251, 1251, 1251, 1251, 1251, 1249, 1249, 1249, 1249, 1249, 1249, 1249, 1249, 1249, 1249, 1249, 1249, 1249, 1246, 1246, 1246, 1244, 1244, 1241, 1236, 1236, 1234, 1234, 1229, 1226, 1226, 1222, 1219, 1219, 1214, 1214, 1210, 1205, 1205, 1203, 1203, 1200, 1198, 1198, 1193, 1189, 1189, 1184, 1184, 1184, 1184, 1184, 1184, 1184, 1187, 1184, 1184, 1184, 1184, 1184, 1184, 1184, 1187, 1187, 1189, 1191, 1191, 1193, 1193, 1196, 1203, 1203, 1207, 1212, 1212, 1217, 1222, 1222, 1226, 1229, 1229, 1234, 1234, 1236, 1239, 1239, 1239, 1239, 1239, 1239, 1239, 1239, 1239, 1239, 1236, 1236, 1236, 1236, 1234, 1234, 1234, 1231, 1229, 1229, 1226, 1226, 1226, 1219, 1219, 1214, 1210, 1210, 1205, 1205, 1200, 1196, 1196, 1189, 1187, 1187, 1184, 1184, 1182, 1180, 1180, 1180, 1178, 1178, 1175, 1175, 1173, 1171, 1171, 1171, 1169, 1169, 1169, 1169, 1169, 1173, 1178, 1178, 1182, 1189, 1189, 1198, 1203, 1203, 1210, 1210, 1219, 1226, 1226, 1234, 1241, 1241, 1244, 1246, 1246, 1249, 1249, 1249, 1251, 1249, 1249, 1249, 1246, 1244, 1244, 1244, 1244, 1244, 1246, 1246, 1246, 1246, 1246, 1246, 1246, 1249, 1249, 1249, 1249, 1249, 1249, 1249, 1249, 1249, 1249, 1249, 1246, 1244, 1244, 1241, 1239, 1239, 1236, 1236, 1234, 1229, 1229, 1226, 1222, 1222, 1217, 1217, 1200, 1200, 1178, 1156, 1156, 1134, 1134, 1114, 1094, 1094, 1077, 1077, 1064, 1064, 1059, 1053, 1053, 1052, 1052, 1052, 1052, 1052, 1052, 1052, 1052, 1052, 1052, 1052, 1052, 1053, 1055, 1055, 1055, 1055, 1057, 1059, 1059, 1061, 1062, 1062, 1064, 1064, 1064, 1066, 1066, 1068, 1068, 1068, 1068, 1068, 1066, 1066, 1064, 1064, 1064, 1064, 1064, 1064, 1064, 1064, 1064, 1064, 1066, 1066, 1066, 1068, 1068, 1068, 1068, 1070, 1070, 1070, 1072, 1072, 1072, 1072, 1072, 1072, 1072, 1072, 1070, 1070, 1070, 1068, 1068, 1066, 1066, 1064, 1062, 1062, 1062, 1062, 1062, 1062, 1062, 1062, 1062, 1064, 1064, 1064, 1066, 1066, 1068, 1068, 1068, 1068, 1068, 1068, 1068, 1068, 1068
1280, 1280, 1280, 1280, 1280, 1280, 1280, 1280, 1282, 1282, 1280, 1280, 1277, 1277, 1277, 1274, 1274, 1274, 1272, 1272, 1272, 1272, 1272, 1272, 1274, 1274, 1274, 1274, 1274, 1274, 1277, 1277, 1277, 1277, 1277, 1277, 1277, 1277, 1280, 1280, 1277, 1277, 1277, 1274, 1274, 1274, 1274, 1274, 1272, 1272, 1269, 1269, 1269, 1267, 1264, 1264, 1264, 1264, 1264, 1261, 1261, 1261, 1261, 1261, 1261, 1264, 1261, 1261, 1261, 1261, 1261, 1261, 1259, 1259, 1259, 1259, 1259, 1256, 1256, 1256, 1256, 1256, 1256, 1256, 1256, 1254, 1254, 1254, 1251, 1251, 1251, 1251, 1251, 1251, 1254, 1254, 1254, 1254, 1254, 1254, 1254, 1254, 1256, 1256, 1256, 1256, 1259, 1259, 1261, 1261, 1261, 1261, 1261, 1259, 1259, 1259, 1259, 1259, 1259, 1259, 1259, 1256, 1256, 1256, 1256, 1256, 1256, 1256, 1256, 1256, 1259, 1259, 1259, 1259, 1259, 1261, 1261, 1261, 1261, 1261, 1264, 1264, 1264, 1264, 1267, 1267, 1267, 1267, 1267, 1267, 1267, 1267, 1267, 1267, 1267, 1267, 1264, 1264, 1264, 1264, 1264, 1261, 1261, 1261, 1261, 1261, 1259, 1259, 1259, 1259, 1259, 1259, 1256, 1256, 1256, 1254, 1254, 1254, 1251, 1251, 1251, 1251, 1251, 1251, 1251, 1251, 1249, 1249, 1249, 1249, 1249, 1249, 1249, 1249, 1249, 1249, 1249, 1249, 1249, 1246, 1246, 1246, 1244, 1244, 1241, 1239, 1239, 1234, 1234, 1229, 1226, 1226, 1224, 1222, 1222, 1217, 1217, 1210, 1205, 1205, 1203, 1203, 1200, 1198, 1198, 1193, 1189, 1189, 1184, 1184, 1184, 1184, 1184, 1184, 1184, 1187, 1187, 1187, 1184, 1184, 1184, 1184, 1184, 1187, 1187, 1189, 1191, 1191, 1193, 1193, 1196, 1203, 1203, 1207, 1212, 1212, 1217, 1222, 1222, 1226, 1229, 1229, 1234, 1234, 1236, 1236, 1236, 1239, 1239, 1239, 1239, 1239, 1239, 1239, 1239, 1236, 1236, 1236, 1236, 1234, 1234, 1234, 1231, 1229, 1229, 1226, 1226, 1226, 1219, 1219, 1214, 1210, 1210, 1205, 1205, 1198, 1193, 1193, 1189, 1184, 1184, 1182, 1182, 1180, 1178, 1178, 1178, 1178, 1178, 1175, 1175, 1173, 1171, 1171, 1169, 1169, 1169, 1169, 1169, 1169, 1173, 1175, 1175, 1180, 1187, 1187, 1198, 1203, 1203, 1210, 1210, 1219, 1226, 1226, 1234, 1239, 1239, 1244, 1246, 1246, 1249, 1249, 1249, 1251, 1249, 1249, 1249, 1246, 1244, 1244, 1244, 1244, 1244, 1246, 1246, 1246, 1246, 1246, 1246, 1246, 1249, 1249, 1249, 1249, 1249, 1249, 1249, 1249, 1249, 1249, 1249, 1246, 1244, 1244, 1241, 1239, 1239, 1236, 1236, 1234, 1229, 1229, 1226, 1222, 1222, 1217, 1217, 1200, 1200, 1180, 1156, 1156, 1156, 0, 1112, 1094, 1092, 1075, 1075, 1062, 1062, 1059, 1053, 1053, 1052, 1052, 1052, 1052, 1052, 1050, 1050, 1052, 1052, 1052, 1052, 1052, 1053, 1055, 1055, 1057, 1057, 1057, 1059, 1059, 1062, 1064, 1064, 1064, 1064, 1066, 1068, 1068, 1068, 1068, 1068, 1068, 1068, 1068, 1068, 1066, 1064, 1064, 1064, 1064, 1064, 1064, 1064, 1064, 1066, 1068, 1068, 1068, 1068, 1068, 1070, 1070, 1072, 1073, 1073, 1073, 1073, 1073, 1073, 1073, 1073, 1073, 1073, 1072, 1072, 1070, 1068, 1068, 1066, 1066, 1064, 1064, 1064, 1062, 1062, 1062, 1062, 1062, 1062, 1062, 1064, 1064, 1064, 1066, 1066, 1068, 1068, 1068, 1068, 1068, 1068, 1068, 1068, 1068
1280, 1280, 1280, 1280, 1280, 1280, 1280, 1280, 1282, 1282, 1280, 1280, 1280, 1280, 1280, 1277, 1274, 1274, 1274, 1274, 1274, 1274, 1274, 1274, 1277, 1277, 1277, 1277, 1277, 1277, 1280, 1280, 1280, 1280, 1280, 1280, 1280, 1280, 1280, 1280, 1277, 1277, 1277, 1274, 1274, 1274, 1274, 1274, 1272, 1272, 1269, 1269, 1269, 1267, 1264, 1264, 1264, 1264, 1264, 1264, 1264, 1264, 1264, 1264, 1264, 1267, 1267, 1264, 1264, 1264, 1264, 1264, 1261, 1261, 1261, 1261, 1261, 1259, 1259, 1259, 1256, 1256, 1256, 1256, 1256, 1256, 1256, 1256, 1254, 1254, 1254, 1254, 1254, 1254, 1254, 1254, 1254, 1254, 1254, 1254, 1254, 1254, 1256, 1256, 1256, 1256, 1259, 1259, 1259, 1259, 1259, 1259, 1256, 1256, 1256, 1256, 1256, 1256, 1256, 1256, 1256, 1254, 1254, 1254, 1254, 1254, 1254, 1254, 1254, 1256, 1256, 1256, 1259, 1259, 1259, 1259, 1259, 1259, 1261, 1261, 1261, 1261, 1261, 1261, 1264, 1264, 1267, 1267, 1267, 1267, 1267, 1267, 1267, 1264, 1264, 1264, 1264, 1264, 1264, 1261, 1261, 1261, 1259, 1259, 1259, 1259, 1256, 1256, 1256, 1254, 1254, 1254, 1254, 1254, 1251, 1251, 1251, 1251, 1249, 1249, 1249, 1249, 1249, 1246, 1246, 1246, 1246, 1246, 1246, 1246, 1249, 1246, 1246, 1246, 1246, 1246, 1246, 1246, 1246, 1246, 1246, 1244, 1244, 1244, 1241, 1239, 1239, 1234, 1234, 1229, 1226, 1226, 1224, 1222, 1222, 1217, 1217, 1210, 1205, 1205, 1203, 1203, 1200, 1198, 1198, 1193, 1189, 1189, 1184, 1184, 1184, 1184, 1184, 1184, 1184, 1187, 1184, 1184, 1184, 1184, 1184, 1184, 1184, 1187, 1187, 1189, 1191, 1191, 1193, 1193, 1198, 1203, 1203, 1207, 1212, 1212, 1217, 1222, 1222, 1226, 1229, 1229, 1231, 1231, 1234, 1236, 1236, 1239, 1239, 1239, 1239, 1239, 1239, 1239, 1239, 1236, 1236, 1236, 1236, 1234, 1234, 1234, 1231, 1229, 1229, 1229, 1226, 1226, 1219, 1219, 1214, 1210, 1210, 1203, 1203, 1198, 1191, 1191, 1187, 1182, 1182, 1180, 1180, 1178, 1175, 1175, 1175, 1175, 1175, 1173, 1173, 1171, 1171, 1171, 1169, 1169, 1169, 1169, 1169, 1169, 1173, 1175, 1175, 1180, 1187, 1187, 1196, 1203, 1203, 1210, 1210, 1219, 1226, 1226, 1234, 1239, 1239, 1244, 1246, 1246, 1249, 1251, 1251, 1251, 1251, 1249, 1249, 1249, 1246, 1246, 1246, 1246, 1246, 1246, 1246, 1246, 1246, 1249, 1249, 1249, 1249, 1249, 1249, 1249, 1249, 1249, 1249, 1251, 1251, 1249, 1249, 1246, 1246, 1246, 1244, 1241, 1241, 1239, 1239, 1234, 1231, 1231, 1226, 1224, 1224, 1219, 1219, 1203, 1203, 1180, 1156, 1156, 1156, 0, 1112, 1112, 1092, 1075, 1075, 1062, 1062, 1059, 1053, 1053, 1052, 1052, 1052, 1052, 1052, 1050, 1050, 1052, 1052, 1052, 1053, 1053, 1055, 1055, 1055, 1057, 1057, 1059, 1061, 1061, 1062, 1064, 1064, 1066, 1066, 1068, 1068, 1068, 1070, 1070, 1070, 1070, 1070, 1068, 1068, 1066, 1066, 1066, 1066, 1066, 1066, 1066, 1066, 1066, 1068, 1068, 1068, 1070, 1070, 1070, 1072, 1072, 1073, 1073, 1073, 1075, 1075, 1075, 1073, 1073, 1073, 1073, 1073, 1073, 1073, 1072, 1070, 1070, 1068, 1068, 1066, 1064, 1064, 1064, 1064, 1064, 1064, 1064, 1062, 1062, 1064, 1064, 1064, 1066, 1066, 1066, 1066, 1068, 1068, 1066, 1066, 1066, 1066, 1066
1280, 1280, 1280, 1280, 1280, 1280, 1280, 1280, 1282, 1282, 1280, 1280, 1280, 1280, 1280, 1277, 1274, 1274, 1274, 1274, 1274, 1274, 1274, 1274, 1277, 1277, 1277, 1277, 1277, 1277, 1280, 1280, 1280, 1280, 1280, 1280, 1280, 1280, 1280, 1280, 1277, 1277, 1277, 1274, 1274, 1274, 1274, 1274, 1272, 1272, 1269, 1269, 1269, 1267, 1264, 1264, 1264, 1264, 1264, 1264, 1264, 1264, 1264, 1264, 1264, 1267, 1267, 1264, 1264, 1264, 1264, 1264, 1261, 1261, 1261, 1261, 1261, 1259, 1259, 1259, 1256, 1256, 1256, 1256, 1256, 1256, 1256, 1256, 1254, 1254, 1254, 1254, 1254, 1254, 1254, 1254, 1254, 1254, 1254, 1254, 1254, 1254, 1256, 1256, 1256, 1256, 1256, 1256, 1256, 1256, 1256, 1256, 1256, 1254, 1254, 1254, 1254, 1254, 1254, 1254, 1254, 1254, 1254, 1254, 1254, 1254, 1254, 1254, 1254, 1254, 1256, 1256, 1256, 1256, 1256, 1259, 1259, 1259, 1259, 1259, 1259, 1261, 1261, 1261, 1264, 1264, 1264, 1264, 1264, 1264, 1264, 1264, 1264, 1264, 1264, 1264, 1264, 1264, 1261, 1261, 1261, 1259, 1259, 1259, 1256, 1256, 1256, 1254, 1254, 1254, 1251, 1251, 1251, 1251, 1251, 1251, 1251, 1249, 1249, 1249, 1246, 1246, 1246, 1246, 1246, 1246, 1246, 1246, 1246, 1246, 1246, 1246, 1246, 1246, 1246, 1246, 1246, 1246, 1246, 1244, 1244, 1244, 1241, 1241, 1241, 1239, 1239, 1234, 1234, 1229, 1226, 1226, 1224, 1222, 1222, 1217, 1217, 1212, 1207, 1207, 1203, 1203, 1200, 1198, 1198, 1193, 1189, 1189, 1184, 1184, 1184, 1184, 1184, 1184, 1184, 1187, 1184, 1184, 1184, 1184, 1184, 1184, 1184, 1187, 1187, 1189, 1191, 1191, 1193, 1193, 1198, 1203, 1203, 1207, 1212, 1212, 1217, 1222, 1222, 1226, 1229, 1229, 1231, 1231, 1234, 1236, 1236, 1239, 1239, 1239, 1239, 1239, 1239, 1239, 1239, 1236, 1236, 1236, 1236, 1236, 1234, 1234, 1234, 1231, 1231, 1229, 1226, 1226, 1219, 1219, 1214, 1210, 1210, 1203, 1203, 1198, 1191, 1191, 1187, 1182, 1182, 1180, 1180, 1178, 1175, 1175, 1175, 1175, 1175, 1173, 1173, 1171, 1171, 1171, 1169, 1169, 1169, 1169, 1169, 1169, 1173, 1178, 1178, 1182, 1187, 1187, 1196, 1203, 1203, 1210, 1219, 1219, 1226, 1226, 1234, 1241, 1241, 1246, 1246, 1246, 1249, 1251, 1251, 1251, 1251, 1249, 1249, 1249, 1246, 1246, 1246, 1246, 1246, 1246, 1246, 1246, 1246, 1249, 1249, 1249, 1249, 1249, 1249, 1249, 1249, 1249, 1249, 1251, 1251, 1249, 1249, 1246, 1246, 1246, 1244, 1241, 1241, 1239, 1239, 1234, 1231, 1231, 1226, 1224, 1224, 1219, 1219, 1203, 1203, 1180, 1156, 1156, 1156, 0, 1112, 1092, 1092, 1072, 1072, 1062, 1062, 1059, 1053, 1053, 1052, 1052, 1052, 1052, 1052, 1050, 1050, 1052, 1052, 1052, 1053, 1053, 1053, 1055, 1055, 1057, 1057, 1059, 1061, 1061, 1062, 1064, 1064, 1066, 1066, 1068, 1068, 1068, 1070, 1070, 1070, 1070, 1070, 1068, 1068, 1066, 1066, 1066, 1064, 1064, 1066, 1066, 1066, 1066, 1068, 1068, 1068, 1070, 1070, 1070, 1072, 1072, 1073, 1073, 1073, 1075, 1075, 1075, 1073, 1073, 1073, 1073, 1073, 1073, 1073, 1072, 1070, 1070, 1068, 1068, 1066, 1064, 1064, 1064, 1064, 1064, 1064, 1064, 1062, 1062, 1064, 1064, 1064, 1066, 1064, 1064, 1064, 1066, 1066, 1066, 1064, 1064, 1064, 1064
1277, 1277, 1277, 1277, 1277, 1280, 1280, 1280, 1280, 1280, 1280, 1280, 1280, 1280, 1280, 1277, 1277, 1277, 1277, 1277, 1277, 1277, 1277, 1277, 1277, 1277, 1277, 1280, 1280, 1280, 1282, 1280, 1280, 1280, 1280, 1280, 1280, 1280, 1280, 1280, 1277, 1277, 1277, 1274, 1274, 1274, 1274, 1272, 1272, 1272, 1269, 1269, 1269, 1269, 1264, 1264, 1264, 1264, 1264, 1264, 1264, 1264, 1267, 1267, 1267, 1267, 1267, 1267, 1267, 1267, 1267, 1267, 1264, 1264, 1261, 1261, 1261, 1261, 1259, 1259, 1259, 1259, 1259, 1259, 1259, 1256, 1256, 1256, 1256, 1256, 1256, 1256, 1256, 1254, 1254, 1256, 1256, 1256, 1256, 1254, 1254, 1254, 1256, 1256, 1256, 1256, 1256, 1256, 1256, 1256, 1256, 1256, 1256, 1254, 1254, 1254, 1254, 1254, 1254, 1254, 1254, 1254, 1254, 1254, 1254, 1254, 1254, 1254, 1254, 1254, 1256, 1256, 1256, 1256, 1256, 1259, 1259, 1259, 1259, 1259, 1259, 1261, 1261, 1261, 1264, 1264, 1264, 1264, 1264, 1264, 1264, 1264, 1264, 1264, 1264, 1264, 1264, 1264, 1261, 1261, 1261, 1259, 1259, 1259, 1256, 1256, 1256, 1254, 1254, 1254, 1251, 1251, 1251, 1251, 1251, 1251, 1251, 1249, 1249, 1249, 1246, 1246, 1246, 1246, 1246, 1246, 1246, 1246, 1246, 1246, 1246, 1246, 1246, 1246, 1246, 1246, 1246, 1246, 1246, 1244, 1244, 1244, 1241, 1241, 1241, 1236, 1236, 1234, 1234, 1229, 1226, 1226, 1224, 1222, 1222, 1217, 1217, 1212, 1207, 1207, 1203, 1203, 1200, 1198, 1198, 1193, 1189, 1189, 1184, 1184, 1184, 1184, 1184, 1184, 1184, 1184, 1184, 1184, 1182, 1182, 1184, 1184, 1184, 1187, 1187, 1189, 1191, 1191, 1193, 1193, 1198, 1203, 1203, 1207, 1212, 1212, 1217, 1222, 1222, 1226, 1229, 1229, 1231, 1231, 1234, 1236, 1236, 1239, 1239, 1239, 1239, 1239, 1239, 1239, 1239, 1236, 1236, 1236, 1236, 1236, 1234, 1234, 1234, 1231, 1231, 1229, 1226, 1226, 1219, 1219, 1214, 1210, 1210, 1203, 1203, 1196, 1191, 1191, 1184, 1182, 1182, 1178, 1178, 1175, 1175, 1175, 1175, 1173, 1173, 1173, 1173, 1171, 1171, 1171, 1169, 1169, 1169, 1169, 1169, 1169, 1173, 1178, 1178, 1182, 1187, 1187, 1196, 1203, 1203, 1210, 1219, 1219, 1226, 1226, 1234, 1241, 1241, 1244, 1246, 1246, 1249, 1249, 1249, 1251, 1251, 1249, 1249, 1249, 1246, 1246, 1246, 1246, 1246, 1249, 1249, 1249, 1249, 1249, 1249, 1251, 1251, 1251, 1251, 1251, 1251, 1251, 1251, 1251, 1251, 1249, 1249, 1249, 1246, 1246, 1244, 1241, 1241, 1239, 1239, 1236, 1231, 1231, 1229, 1226, 1226, 1222, 1222, 1203, 1203, 1180, 1156, 1156, 1156, 0, 1108, 1092, 1089, 1070, 1070, 1061, 1061, 1057, 1052, 1052, 1050, 1050, 1050, 1050, 1052, 1052, 1052, 1052, 1052, 1052, 1053, 1053, 1053, 1055, 1055, 1059, 1059, 1059, 1061, 1061, 1064, 1066, 1066, 1068, 1068, 1068, 1070, 1070, 1070, 1070, 1068, 1068, 1068, 1066, 1066, 1066, 1064, 1064, 1064, 1064, 1066, 1066, 1066, 1066, 1068, 1070, 1070, 1070, 1072, 1072, 1073, 1073, 1073, 1075, 1075, 1077, 1077, 1077, 1077, 1077, 1077, 1077, 1075, 1075, 1075, 1073, 1072, 1072, 1070, 1070, 1070, 1068, 1068, 1068, 1066, 1066, 1066, 1066, 1064, 1064, 1064, 1064, 1066, 1066, 1064, 1064, 1064, 1066, 1066, 1066, 1064, 1064, 1064, 1064
1277, 1277, 1277, 1277, 1277, 1280, 1280, 1280, 1280, 1280, 1280, 1280, 1280, 1280, 1280, 1277, 1277, 1277, 1277, 1277, 1277, 1280, 1280, 1280, 1280, 1280, 1280, 1280, 1282, 1282, 1282, 1282, 1282, 1282, 1280, 1280, 1280, 1280, 1280, 1280, 1277, 1277, 1277, 1274, 1274, 1274, 1274, 1272, 1272, 1272, 1269, 1269, 1269, 1269, 1264, 1264, 1264, 1264, 1264, 1264, 1264, 1264, 1267, 1267, 1267, 1267, 1267, 1267, 1267, 1267, 1267, 1267, 1264, 1264, 1261, 1261, 1261, 1261, 1259, 1259, 1259, 1259, 1259, 1259, 1259, 1256, 1256, 1256, 1256, 1256, 1256, 1256, 1256, 1254, 1254, 1256, 1256, 1256, 1256, 1254, 1254, 1254, 1254, 1254, 1254, 1256, 1256, 1254, 1254, 1254, 1254, 1254, 1254, 1254, 1254, 1251, 1251, 1251, 1251, 1251, 1251, 1251, 1251, 1251, 1251, 1251, 1251, 1251, 1251, 1251, 1254, 1254, 1254, 1256, 1256, 1256, 1256, 1256, 1256, 1256, 1259, 1259, 1259, 1259, 1261, 1261, 1261, 1261, 1261, 1264, 1264, 1264, 1264, 1264, 1261, 1261, 1261, 1261, 1261, 1259, 1259, 1259, 1256, 1256, 1254, 1254, 1254, 1251, 1251, 1251, 1249, 1249, 1249, 1249, 1249, 1249, 1249, 1246, 1246, 1246, 1246, 1246, 1246, 1246, 1246, 1246, 1246, 1246, 1246, 1246, 1246, 1246, 1246, 1246, 1246, 1246, 1246, 1246, 1246, 1244, 1244, 1244, 1241, 1241, 1241, 1236, 1236, 1234, 1234, 1229, 1226, 1226, 1224, 1222, 1222, 1217, 1217, 1212, 1207, 1207, 1203, 1203, 1200, 1198, 1198, 1193, 1189, 1189, 1184, 1184, 1184, 1182, 1182, 1182, 1182, 1182, 1182, 1182, 1182, 1182, 1184, 1182, 1182, 1184, 1184, 1187, 1191, 1191, 1193, 1193, 1198, 1203, 1203, 1207, 1212, 1212, 1217, 1222, 1222, 1226, 1229, 1229, 1231, 1231, 1234, 1236, 1236, 1239, 1239, 1239, 1239, 1239, 1239, 1239, 1239, 1236, 1236, 1236, 1236, 1236, 1234, 1234, 1234, 1231, 1231, 1229, 1226, 1226, 1219, 1219, 1214, 1207, 1207, 1200, 1200, 1196, 1189, 1189, 1184, 1180, 1180, 1175, 1175, 1175, 1175, 1175, 1175, 1173, 1173, 1173, 1173, 1171, 1171, 1171, 1169, 1169, 1169, 1169, 1171, 1171, 1173, 1178, 1178, 1182, 1189, 1189, 1198, 1203, 1203, 1210, 1219, 1219, 1226, 1226, 1236, 1241, 1241, 1244, 1246, 1246, 1249, 1249, 1249, 1251, 1251, 1249, 1249, 1249, 1246, 1246, 1246, 1249, 1249, 1249, 1249, 1249, 1249, 1251, 1251, 1251, 1251, 1251, 1251, 1251, 1251, 1251, 1251, 1251, 1251, 1251, 1251, 1249, 1246, 1246, 1244, 1241, 1241, 1239, 1239, 1236, 1231, 1231, 1229, 1226, 1226, 1222, 1222, 1205, 1205, 1180, 1156, 1156, 1156, 0, 1108, 1108, 1089, 1070, 1070, 1061, 1061, 1057, 1052, 1052, 1050, 1050, 1050, 1050, 1052, 1052, 1052, 1052, 1052, 1052, 1053, 1053, 1055, 1057, 1057, 1059, 1059, 1061, 1062, 1062, 1064, 1066, 1066, 1068, 1068, 1068, 1070, 1070, 1070, 1070, 1068, 1068, 1068, 1066, 1066, 1066, 1064, 1064, 1064, 1064, 1064, 1064, 1066, 1066, 1066, 1070, 1070, 1070, 1072, 1072, 1073, 1073, 1073, 1075, 1075, 1077, 1077, 1077, 1077, 1077, 1077, 1077, 1075, 1075, 1075, 1073, 1072, 1072, 1070, 1070, 1070, 1068, 1068, 1068, 1066, 1066, 1066, 1066, 1064, 1064, 1064, 1064, 1064, 1064, 1062, 1062, 1062, 1062, 1062, 1062, 1062, 1062, 1061, 1061
1274, 1277, 1277, 1277, 1277, 1277, 1280, 1280, 1280, 1280, 1280, 1280, 1280, 1280, 1280, 1277, 1277, 1277, 1277, 1277, 1277, 1277, 1280, 1280, 1280, 1280, 1280, 1280, 1282, 1282, 1282, 1282, 1280, 1280, 1280, 1280, 1280, 1280, 1280, 1280, 1277, 1277, 1277, 1274, 1274, 1274, 1272, 1272, 1269, 1269, 1269, 1269, 1269, 1269, 1264, 1264, 1264, 1264, 1264, 1264, 1264, 1264, 1267, 1267, 1267, 1267, 1267, 1267, 1267, 1267, 1267, 1267, 1264, 1264, 1264, 1261, 1261, 1261, 1259, 1259, 1259, 1256, 1256, 1256, 1256, 1256, 1256, 1256, 1256, 1254, 1254, 1254, 1254, 1254, 1256, 1256, 1254, 1254, 1254, 1254, 1254, 1254, 1254, 1254, 1254, 1254, 1254, 1254, 1251, 1251, 1251, 1251, 1251, 1249, 1249, 1249, 1249, 1249, 1249, 1249, 1249, 1249, 1249, 1249, 1249, 1249, 1249, 1251, 1251, 1251, 1251, 1251, 1254, 1254, 1254, 1254, 1256, 1256, 1256, 1256, 1256, 1259, 1259, 1259, 1259, 1259, 1261, 1261, 1261, 1261, 1261, 1261, 1261, 1261, 1261, 1261, 1261, 1261, 1259, 1259, 1259, 1259, 1256, 1256, 1254, 1254, 1254, 1251, 1251, 1251, 1249, 1249, 1249, 1249, 1249, 1249, 1249, 1246, 1246, 1246, 1246, 1246, 1246, 1246, 1246, 1246, 1246, 1246, 1246, 1246, 1246, 1246, 1246, 1246, 1246, 1246, 1246, 1246, 1246, 1246, 1246, 1244, 1244, 1244, 1241, 1236, 1236, 1234, 1234, 1229, 1226, 1226, 1224, 1222, 1222, 1217, 1217, 1212, 1207, 1207, 1203, 1203, 1200, 1198, 1198, 1193, 1189, 1189, 1184, 1184, 1184, 1182, 1182, 1182, 1182, 1182, 1182, 1182, 1182, 1182, 1184, 1182, 1182, 1184, 1184, 1187, 1191, 1191, 1193, 1193, 1198, 1203, 1203, 1207, 1212, 1212, 1219, 1224, 1224, 1226, 1229, 1229, 1231, 1231, 1234, 1236, 1236, 1239, 1239, 1239, 1239, 1239, 1239, 1239, 1239, 1239, 1239, 1236, 1236, 1236, 1234, 1234, 1234, 1231, 1231, 1229, 1226, 1226, 1219, 1219, 1214, 1207, 1207, 1200, 1200, 1196, 1189, 1189, 1184, 1180, 1180, 1175, 1175, 1175, 1175, 1175, 1175, 1173, 1173, 1173, 1173, 1171, 1171, 1171, 1169, 1169, 1169, 1169, 1171, 1171, 1173, 1178, 1178, 1182, 1189, 1189, 1198, 1203, 1203, 1210, 1219, 1219, 1226, 1226, 1234, 1239, 1239, 1241, 1244, 1244, 1246, 1249, 1249, 1249, 1249, 1249, 1249, 1249, 1246, 1246, 1246, 1249, 1249, 1249, 1249, 1249, 1249, 1251, 1251, 1251, 1251, 1251, 1251, 1251, 1251, 1251, 1251, 1251, 1251, 1251, 1251, 1249, 1246, 1246, 1244, 1241, 1241, 1239, 1239, 1236, 1231, 1231, 1229, 1226, 1226, 1222, 1222, 1205, 1182, 1180, 1156, 1156, 1156, 0, 1108, 1108, 1087, 1068, 1068, 1059, 1059, 1057, 1052, 1052, 1050, 1050, 1050, 1050, 1050, 1050, 1050, 1052, 1052, 1052, 1053, 1053, 1055, 1057, 1057, 1059, 1059, 1061, 1062, 1062, 1064, 1064, 1064, 1066, 1066, 1066, 1068, 1068, 1068, 1068, 1066, 1066, 1066, 1066, 1066, 1066, 1064, 1064, 1064, 1064, 1064, 1064, 1064, 1064, 1066, 1068, 1068, 1070, 1072, 1072, 1073, 1075, 1075, 1077, 1077, 1077, 1077, 1077, 1077, 1077, 1077, 1077, 1077, 1077, 1077, 1075, 1073, 1073, 1073, 1073, 1070, 1070, 1070, 1070, 1068, 1068, 1066, 1066, 1066, 1064, 1064, 1064, 1062, 1062, 1062, 1062, 1062, 1061, 1061, 1061, 1059, 1059, 1059, 1059
1274, 1274, 1274, 1274, 1274, 1277, 1277, 1277, 1277, 1277, 1277, 1277, 1277, 1277, 1277, 1277, 1274, 1274, 1274, 1274, 1274, 1277, 1280, 1280, 1280, 1280, 1280, 1280, 1282, 1282, 1282, 1282, 1280, 1280, 1280, 1280, 1280, 1280, 1280, 1280, 1277, 1277, 1277, 1274, 1274, 1274, 1272, 1272, 1269, 1269, 1269, 1269, 1269, 1269, 1267, 1267, 1267, 1267, 1267, 1267, 1267, 1267, 1267, 1267, 1267, 1267, 1267, 1267, 1267, 1267, 1267, 1267, 1264, 1264, 1264, 1261, 1261, 1261, 1259, 1259, 1259, 1256, 1256, 1256, 1256, 1256, 1256, 1256, 1256, 1254, 1254, 1254, 1254, 1254, 1256, 1256, 1254, 1254, 1254, 1254, 1254, 1254, 1254, 1254, 1254, 1254, 1254, 1254, 1251, 1251, 1251, 1251, 1251, 1249, 1249, 1249, 1249, 1249, 1249, 1249, 1249, 1249, 1249, 1249, 1249, 1249, 1249, 1251, 1251, 1251, 1251, 1251, 1254, 1254, 1254, 1254, 1256, 1256, 1256, 1256, 1256, 1259, 1259, 1259, 1259, 1259, 1261, 1261, 1261, 1261, 1261, 1261, 1261, 1261, 1261, 1261, 1261, 1261, 1259, 1259, 1259, 1259, 1256, 1256, 1254, 1254, 1254, 1251, 1251, 1251, 1249, 1249, 1249, 1249, 1249, 1246, 1246, 1246, 1246, 1246, 1246, 1246, 1244, 1244, 1244, 1244, 1244, 1246, 1246, 1246, 1246, 1246, 1246, 1246, 1246, 1246, 1246, 1246, 1246, 1246, 1246, 1244, 1244, 1244, 1241, 1236, 1236, 1234, 1234, 1229, 1226, 1226, 1224, 1222, 1222, 1217, 1217, 1212, 1207, 1207, 1203, 1203, 1200, 1198, 1198, 1193, 1189, 1189, 1184, 1184, 1184, 1182, 1182, 1182, 1182, 1182, 1182, 1182, 1182, 1182, 1184, 1182, 1182, 1184, 1184, 1187, 1191, 1191, 1193, 1193, 1198, 1203, 1203, 1207, 1212, 1212, 1219, 1224, 1224, 1226, 1229, 1229, 1231, 1231, 1234, 1236, 1236, 1239, 1239, 1239, 1239, 1239, 1239, 1239, 1239, 1239, 1239, 1236, 1236, 1236, 1234, 1234, 1234, 1231, 1231, 1229, 1226, 1226, 1219, 1219, 1214, 1207, 1207, 1200, 1200, 1196, 1189, 1189, 1182, 1178, 1178, 1175, 1175, 1175, 1173, 1173, 1173, 1173, 1173, 1173, 1173, 1171, 1171, 1171, 1171, 1169, 1169, 1169, 1171, 1171, 1175, 1180, 1180, 1182, 1189, 1189, 1198, 1205, 1205, 1212, 1219, 1219, 1226, 1226, 1234, 1239, 1239, 1241, 1244, 1244, 1246, 1249, 1249, 1249, 1249, 1249, 1249, 1249, 1249, 1249, 1249, 1249, 1249, 1249, 1249, 1249, 1251, 1251, 1251, 1251, 1251, 1251, 1254, 1254, 1254, 1254, 1254, 1254, 1254, 1251, 1251, 1249, 1246, 1246, 1244, 1241, 1241, 1239, 1239, 1236, 1231, 1231, 1229, 1226, 1226, 1224, 1224, 1207, 1182, 1182, 1182, 0, 0, 0, 1108, 1108, 1087, 1068, 1068, 1059, 1059, 1057, 1052, 1052, 1050, 1050, 1050, 1050, 1050, 1050, 1050, 1052, 1052, 1052, 1053, 1053, 1055, 1057, 1057, 1059, 1059, 1061, 1062, 1062, 1064, 1064, 1064, 1066, 1066, 1066, 1068, 1068, 1068, 1068, 1066, 1066, 1066, 1066, 1066, 1066, 1064, 1064, 1064, 1064, 1064, 1064, 1064, 1064, 1068, 1068, 1068, 1072, 1072, 1072, 1073, 1075, 1075, 1077, 1077, 1077, 1079, 1079, 1079, 1079, 1079, 1079, 1079, 1079, 1079, 1077, 1077, 1077, 1073, 1073, 1073, 1072, 1072, 1070, 1070, 1070, 1066, 1066, 1066, 1064, 1064, 1064, 1062, 1062, 1062, 1062, 1062, 1061, 1061, 1061, 1059, 1059, 1059, 1059
1274, 1274, 1274, 1274, 1274, 1277, 1277, 1277, 1277, 1277, 1277, 1277, 1277, 1277, 1277, 1277, 1274, 1274, 1274, 1274, 1274, 1277, 1277, 1277, 1277, 1277, 1277, 1277, 1280, 1280, 1280, 1277, 1277, 1277, 1277, 1277, 1277, 1277, 1277, 1277, 1274, 1274, 1274, 1272, 1272, 1272, 1272, 1272, 1269, 1269, 1269, 1269, 1269, 1269, 1267, 1267, 1267, 1267, 1267, 1267, 1267, 1267, 1267, 1267, 1267, 1267, 1267, 1267, 1267, 1267, 1267, 1267, 1264, 1264, 1264, 1261, 1261, 1261, 1259, 1259, 1259, 1256, 1256, 1256, 1256, 1256, 1256, 1256, 1256, 1254, 1254, 1254, 1254, 1254, 1256, 1256, 1254, 1254, 1254, 1254, 1254, 1254, 1254, 1254, 1254, 1254, 1254, 1254, 1251, 1251, 1251, 1251, 1251, 1249, 1249, 1249, 1249, 1249, 1249, 1249, 1249, 1249, 1249, 1249, 1249, 1249, 1249, 1251, 1251, 1251, 1251, 1251, 1254, 1254, 1254, 1254, 1256, 1256, 1256, 1256, 1256, 1259, 1259, 1259, 1259, 1259, 1261, 1261, 1261, 1261, 1261, 1261, 1261, 1261, 1261, 1261, 1261, 1261, 1259, 1259, 1259, 1259, 1256, 1256, 1254, 1254, 1254, 1251, 1251, 1251, 1249, 1249, 1249, 1249, 1246, 1246, 1246, 1246, 1246, 1246, 1246, 1246, 1244, 1244, 1244, 1244, 1244, 1246, 1246, 1246, 1246, 1246, 1246, 1246, 1246, 1246, 1246, 1246, 1246, 1246, 1246, 1246, 1244, 1244, 1241, 1236, 1236, 1234, 1234, 1229, 1226, 1226, 1224, 1222, 1222, 1217, 1217, 1212, 1207, 1207, 1203, 1203, 1200, 1198, 1198, 1193, 1189, 1189, 1187, 1187, 1184, 1182, 1182, 1182, 1182, 1182, 1182, 1182, 1182, 1182, 1184, 1182, 1182, 1184, 1184, 1187, 1191, 1191, 1193, 1193, 1198, 1203, 1203, 1207, 1212, 1212, 1219, 1224, 1224, 1226, 1229, 1229, 1231, 1231, 1234, 1236, 1236, 1239, 1239, 1239, 1239, 1239, 1239, 1239, 1239, 1239, 1239, 1236, 1236, 1236, 1236, 1236, 1234, 1234, 1234, 1231, 1226, 1226, 1219, 1219, 1214, 1207, 1207, 1200, 1200, 1196, 1189, 1189, 1182, 1178, 1178, 1175, 1175, 1175, 1173, 1173, 1173, 1173, 1173, 1173, 1173, 1171, 1171, 1171, 1171, 1171, 1171, 1171, 1171, 1171, 1175, 1180, 1180, 1184, 1191, 1191, 1198, 1205, 1205, 1212, 1219, 1219, 1226, 1226, 1234, 1239, 1239, 1241, 1244, 1244, 1246, 1249, 1249, 1251, 1251, 1249, 1249, 1249, 1249, 1249, 1249, 1249, 1249, 1249, 1251, 1251, 1251, 1251, 1251, 1254, 1254, 1254, 1254, 1254, 1254, 1254, 1254, 1254, 1254, 1251, 1251, 1251, 1249, 1249, 1246, 1241, 1241, 1239, 1239, 1236, 1234, 1234, 1229, 1226, 1226, 1224, 1224, 1207, 1182, 1182, 1182, 0, 0, 0, 1110, 1110, 1089, 1070, 1070, 1059, 1059, 1057, 1052, 1052, 1050, 1050, 1050, 1050, 1050, 1050, 1050, 1052, 1052, 1052, 1053, 1053, 1055, 1057, 1057, 1057, 1057, 1059, 1061, 1061, 1062, 1064, 1064, 1064, 1064, 1066, 1066, 1066, 1066, 1066, 1064, 1064, 1064, 1064, 1064, 1064, 1064, 1064, 1064, 1064, 1064, 1064, 1064, 1064, 1066, 1068, 1068, 1070, 1072, 1072, 1073, 1075, 1075, 1077, 1077, 1077, 1079, 1079, 1079, 1079, 1079, 1079, 1079, 1079, 1079, 1077, 1077, 1077, 1073, 1073, 1073, 1072, 1072, 1070, 1070, 1070, 1066, 1066, 1064, 1064, 1064, 1062, 1062, 1062, 1061, 1061, 1061, 1059, 1059, 1059, 1059, 1059, 1057, 1057
1272, 1272, 1272, 1274, 1274, 1274, 1274, 1274, 1274, 1277, 1277, 1277, 1277, 1277, 1277, 1274, 1274, 1274, 1274, 1274, 1274, 1274, 1274, 1274, 1277, 1277, 1274, 1274, 1274, 1274, 1277, 1277, 1274, 1274, 1274, 1274, 1274, 1274, 1274, 1274, 1274, 1274, 1272, 1272, 1272, 1272, 1272, 1272, 1272, 1272, 1269, 1269, 1269, 1269, 1267, 1267, 1267, 1267, 1267, 1267, 1269, 1269, 1269, 1269, 1269, 1269, 1269, 1269, 1269, 1269, 1267, 1267, 1267, 1267, 1264, 1261, 1261, 1261, 1259, 1259, 1259, 1259, 1259, 1259, 1259, 1256, 1256, 1256, 1256, 1256, 1256, 1256, 1256, 1256, 1256, 1256, 1256, 1256, 1256, 1256, 1256, 1254, 1254, 1254, 1254, 1254, 1254, 1254, 1251, 1251, 1251, 1251, 1251, 1249, 1249, 1249, 1249, 1249, 1249, 1249, 1249, 1249, 1249, 1249, 1249, 1251, 1251, 1251, 1251, 1251, 1251, 1251, 1254, 1254, 1254, 1256, 1256, 1256, 1256, 1256, 1256, 1259, 1259, 1259, 1259, 1259, 1261, 1261, 1261, 1261, 1261, 1261, 1261, 1261, 1261, 1261, 1261, 1261, 1259, 1259, 1259, 1259, 1256, 1256, 1256, 1256, 1254, 1254, 1254, 1251, 1251, 1251, 1249, 1249, 1246, 1246, 1246, 1246, 1246, 1246, 1246, 1246, 1244, 1244, 1244, 1244, 1246, 1246, 1246, 1246, 1246, 1246, 1249, 1249, 1249, 1249, 1249, 1249, 1249, 1246, 1246, 1246, 1244, 1244, 1241, 1239, 1239, 1234, 1234, 1229, 1226, 1226, 1224, 1222, 1222, 1217, 1217, 1212, 1207, 1207, 1203, 1203, 1200, 1198, 1198, 1193, 1191, 1191, 1187, 1187, 1184, 1184, 1184, 1184, 1184, 1184, 1184, 1184, 1184, 1184, 1184, 1184, 1184, 1184, 1184, 1189, 1191, 1191, 1193, 1193, 1198, 1203, 1203, 1207, 1214, 1214, 1219, 1224, 1224, 1226, 1229, 1229, 1231, 1231, 1234, 1236, 1236, 1239, 1239, 1239, 1239, 1239, 1239, 1239, 1239, 1239, 1239, 1236, 1236, 1236, 1236, 1236, 1234, 1234, 1234, 1231, 1226, 1226, 1219, 1219, 1214, 1207, 1207, 1200, 1200, 1193, 1187, 1187, 1182, 1178, 1178, 1173, 1173, 1173, 1173, 1173, 1173, 1173, 1173, 1171, 1171, 1171, 1171, 1171, 1171, 1171, 1171, 1171, 1171, 1171, 1175, 1180, 1180, 1184, 1191, 1191, 1198, 1205, 1205, 1212, 1219, 1219, 1226, 1226, 1234, 1239, 1239, 1241, 1244, 1244, 1246, 1249, 1249, 1249, 1249, 1249, 1249, 1249, 1249, 1249, 1249, 1249, 1249, 1249, 1251, 1251, 1251, 1251, 1251, 1254, 1254, 1254, 1254, 1254, 1254, 1254, 1254, 1254, 1254, 1251, 1251, 1251, 1249, 1249, 1246, 1241, 1241, 1239, 1239, 1236, 1234, 1234, 1229, 1226, 1226, 1224, 1224, 1207, 1182, 1182, 1182, 0, 0, 0, 1110, 1090, 1089, 1070, 1070, 1061, 1061, 1059, 1052, 1052, 1052, 1052, 1052, 1052, 1052, 1052, 1052, 1052, 1052, 1052, 1053, 1053, 1053, 1055, 1055, 1057, 1057, 1057, 1059, 1059, 1061, 1061, 1061, 1062, 1062, 1062, 1064, 1064, 1064, 1064, 1064, 1062, 1062, 1062, 1064, 1064, 1062, 1062, 1062, 1062, 1064, 1064, 1064, 1064, 1064, 1068, 1068, 1068, 1070, 1070, 1072, 1073, 1073, 1075, 1075, 1075, 1077, 1077, 1077, 1077, 1077, 1079, 1079, 1079, 1079, 1077, 1077, 1077, 1075, 1075, 1073, 1072, 1072, 1072, 1070, 1070, 1066, 1066, 1064, 1064, 1064, 1062, 1061, 1061, 1061, 1061, 1061, 1059, 1059, 1059, 1057, 1057, 1057, 1057
