906, 906, 907, 907, 907, 907, 907, 908, 908, 908, 908, 909, 908, 908, 908, 906, 906, 903, 898, 898, 892, 892, 885, 876, 876, 864, 864, 853, 843, 843, 835, 835, 827, 827, 820, 814, 814, 811, 810, 810, 810, 810, 810, 810, 810, 810, 810, 810, 809, 809, 809, 808, 808, 808, 806, 806, 806, 806, 806, 808, 809, 809, 810, 813, 813, 815, 818, 818, 820, 823, 823, 826, 826, 829, 831, 831, 836, 840, 840, 844, 848, 848, 854, 858, 858, 863, 866, 866, 870, 871, 871, 874, 874, 875, 876, 876, 877, 877, 877, 877, 0, 0, 0, 0, 0, 0, 0, 0, 0, 0, 0, 0, 0, 0, 0, 0, 653, 653, 653, 653, 653, 653, 653, 653, 652, 652, 652, 652, 652, 652, 651, 651, 651, 649, 649, 649, 649, 649, 648, 648, 647, 647, 647, 647, 646, 646, 646, 646, 646, 646, 646, 646, 646, 647, 647, 647, 647, 647, 647, 647, 647, 648, 648, 649, 649, 649, 649, 649, 650, 651, 651, 651, 652, 652, 652, 653, 653, 653, 653, 654, 655, 655, 655, 655, 655, 655, 655, 655, 655, 655, 654, 654, 654, 653, 653, 653, 653, 652, 652, 652, 651, 651, 651, 651, 651, 651, 651, 651, 651, 651, 652, 652, 652, 652, 653, 653, 653, 652, 652, 652, 652, 652, 651, 651, 651, 651, 651, 650, 650, 650, 650, 650, 650, 650, 650, 650, 651, 651, 650, 650, 650, 650, 650, 650, 650, 650, 649, 649, 649, 649, 649, 649, 649, 649, 649, 649, 649, 648, 648, 648, 648, 648, 647, 647, 647, 647, 647, 647, 647, 647, 647, 647, 647, 647, 647, 647, 647, 647, 647, 647, 647, 647, 647, 647, 648, 648, 648, 648, 648, 648, 648, 647, 647, 648, 648, 648, 648, 648, 647, 647, 647, 647, 647, 647, 647, 647, 647, 647, 646, 646, 646, 646, 646, 645, 645, 645, 645, 645, 645, 645, 645, 645, 646, 647, 647, 647, 647, 647, 648, 648, 649, 649, 649, 650, 651, 651, 651, 651, 651, 651, 650, 649, 649, 649, 649, 649, 647, 647, 647, 646, 646, 645, 645, 645, 645, 645, 645, 645, 645, 645, 645, 644, 644, 644, 643, 643, 643, 643, 643, 643, 643, 643, 643, 643, 643, 643, 643, 644, 644, 644, 644, 644, 645, 645, 645, 645, 645, 645, 645, 645, 645, 645, 645, 645, 645, 645, 645, 645, 645, 645, 645, 645, 645, 645, 645, 645, 645, 645, 645, 645, 645, 646, 646, 646, 646, 646, 647, 647, 647, 647, 647, 647, 647, 647, 646, 646, 645, 645, 645, 644, 644, 643, 642, 642, 642, 642, 642, 642, 642, 642, 642, 642, 642, 642, 642, 642, 642, 643, 643, 643, 643, 644, 644, 644, 645, 645, 645, 645, 645, 646, 646, 646, 647, 647, 647, 647, 647, 647, 647, 647, 647, 647, 647, 647, 647, 647, 647, 647, 647, 648, 648, 647, 647, 647, 648, 647, 647, 647, 647, 647, 647, 647, 647, 647, 646, 646, 646, 645, 645, 645, 645, 645, 645, 645, 644, 644, 644, 643, 643, 643, 642, 642, 642, 642, 643, 643, 643, 643, 643, 644, 644, 645, 645, 645, 645, 645, 645, 645, 645, 646, 646, 646, 646, 646, 646, 646, 646, 646, 647, 646, 646, 646, 646, 877, 877, 877, 877, 877, 877, 879, 880, 880, 880, 880, 880, 880, 879, 879, 879, 877, 875, 875, 874, 874, 871, 869, 869, 867, 867, 865, 863, 863, 861, 859, 859, 858, 858, 857, 855, 855, 854, 852, 852, 851, 851, 848, 847, 847, 845, 845, 843, 842, 842, 839, 838, 838, 836, 836, 835, 832, 832, 831, 829, 829
907, 907, 908, 908, 908, 908, 908, 908, 908, 908, 909, 909, 909, 908, 908, 907, 907, 904, 902, 902, 896, 896, 890, 881, 881, 869, 869, 858, 858, 0, 0, 0, 830, 830, 821, 815, 815, 811, 810, 810, 810, 810, 810, 810, 810, 810, 810, 810, 809, 809, 809, 808, 808, 808, 806, 806, 806, 806, 806, 808, 809, 809, 810, 813, 813, 815, 818, 818, 820, 823, 823, 826, 826, 829, 831, 831, 836, 840, 840, 844, 848, 848, 854, 858, 858, 863, 866, 866, 870, 871, 871, 874, 874, 875, 876, 876, 877, 877, 877, 877, 0, 0, 0, 0, 0, 0, 0, 0, 0, 0, 0, 0, 0, 0, 0, 0, 653, 653, 653, 653, 653, 653, 653, 653, 652, 652, 652, 652, 652, 652, 651, 651, 651, 649, 649, 649, 649, 649, 648, 648, 647, 647, 647, 647, 646, 646, 646, 646, 646, 646, 646, 646, 646, 647, 647, 647, 647, 647, 647, 647, 647, 648, 648, 649, 649, 649, 649, 649, 650, 651, 651, 651, 652, 652, 652, 653, 653, 653, 653, 654, 654, 654, 654, 655, 655, 655, 655, 655, 655, 654, 654, 654, 654, 653, 653, 653, 653, 652, 652, 652, 652, 652, 652, 651, 651, 651, 651, 651, 651, 651, 652, 652, 653, 653, 653, 653, 653, 653, 653, 653, 653, 653, 652, 652, 651, 651, 651, 651, 651, 651, 651, 651, 650, 650, 650, 650, 651, 651, 650, 650, 650, 650, 650, 650, 650, 650, 649, 649, 649, 649, 649, 649, 649, 649, 649, 649, 649, 648, 648, 648, 648, 648, 647, 647, 647, 647, 647, 647, 647, 647, 647, 647, 647, 647, 647, 647, 648, 648, 648, 648, 648, 648, 648, 648, 648, 648, 648, 648, 648, 648, 648, 647, 647, 648, 648, 648, 649, 648, 648, 648, 648, 648, 647, 647, 647, 647, 647, 647, 647, 647, 646, 646, 646, 646, 646, 646, 646, 646, 646, 646, 646, 646, 646, 647, 647, 647, 648, 648, 648, 648, 649, 649, 649, 650, 651, 651, 651, 651, 651, 651, 650, 649, 649, 649, 649, 649, 648, 648, 647, 647, 647, 646, 646, 646, 646, 646, 646, 646, 646, 646, 646, 645, 645, 645, 645, 645, 645, 645, 645, 645, 645, 645, 645, 645, 645, 645, 645, 645, 645, 645, 645, 646, 646, 646, 645, 645, 645, 646, 646, 646, 646, 645, 645, 646, 646, 645, 645, 645, 646, 646, 646, 646, 646, 646, 646, 645, 645, 645, 645, 645, 645, 646, 646, 646, 646, 646, 647, 647, 647, 647, 647, 647, 647, 647, 646, 646, 645, 645, 645, 644, 644, 643, 642, 642, 642, 642, 642, 642, 642, 642, 642, 642, 642, 642, 642, 642, 642, 643, 643, 643, 643, 643, 643, 643, 645, 645, 645, 645, 645, 646, 646, 646, 647, 647, 647, 647, 647, 647, 647, 647, 647, 647, 647, 647, 647, 647, 647, 647, 647, 648, 648, 647, 647, 647, 648, 647, 647, 647, 647, 647, 647, 647, 647, 647, 646, 646, 646, 645, 645, 645, 645, 645, 645, 645, 644, 644, 644, 643, 643, 643, 642, 642, 642, 642, 643, 643, 643, 643, 643, 643, 643, 644, 644, 644, 645, 645, 645, 645, 645, 645, 646, 646, 646, 646, 646, 646, 646, 646, 647, 646, 646, 646, 646, 877, 879, 880, 880, 880, 880, 880, 880, 880, 880, 880, 879, 879, 877, 876, 876, 875, 874, 874, 871, 871, 869, 867, 867, 865, 865, 863, 860, 860, 859, 858, 858, 855, 855, 854, 853, 853, 851, 850, 850, 847, 847, 846, 844, 844, 843, 843, 840, 838, 838, 837, 835, 835, 834, 834, 831, 829, 829, 828, 827, 827
907, 907, 908, 908, 908, 908, 908, 908, 908, 908, 909, 909, 909, 908, 908, 907, 907, 904, 902, 902, 896, 896, 890, 881, 881, 869, 869, 858, 850, 850, 850, 0, 830, 823, 821, 815, 815, 811, 810, 810, 810, 810, 810, 810, 810, 810, 810, 810, 809, 809, 809, 808, 808, 808, 806, 806, 806, 806, 806, 808, 809, 809, 810, 812, 812, 815, 817, 817, 820, 823, 823, 826, 826, 829, 832, 832, 836, 839, 839, 844, 850, 850, 854, 859, 859, 864, 867, 867, 871, 875, 875, 876, 876, 879, 879, 879, 880, 880, 880, 881, 0, 0, 0, 0, 0, 0, 0, 0, 0, 0, 0, 0, 0, 0, 0, 0, 653, 653, 653, 653, 653, 653, 653, 653, 653, 653, 653, 653, 653, 653, 651, 651, 651, 651, 651, 650, 650, 650, 649, 649, 649, 649, 649, 648, 648, 648, 648, 648, 647, 647, 647, 647, 647, 647, 647, 647, 647, 647, 648, 648, 649, 649, 649, 649, 650, 650, 650, 650, 651, 651, 651, 651, 652, 652, 652, 653, 653, 653, 653, 654, 654, 654, 654, 655, 655, 655, 655, 655, 655, 654, 654, 654, 654, 653, 653, 653, 653, 653, 653, 653, 653, 653, 653, 652, 652, 652, 652, 652, 652, 653, 653, 653, 653, 653, 653, 653, 653, 653, 653, 653, 653, 653, 653, 653, 653, 652, 652, 652, 651, 651, 651, 651, 651, 651, 651, 651, 651, 651, 650, 650, 650, 651, 651, 650, 650, 650, 650, 650, 650, 650, 650, 650, 649, 649, 649, 649, 649, 648, 648, 648, 648, 648, 647, 647, 647, 647, 647, 647, 647, 647, 647, 648, 648, 648, 648, 648, 648, 648, 648, 648, 648, 648, 648, 648, 648, 648, 648, 648, 648, 648, 648, 647, 647, 648, 648, 648, 649, 648, 648, 648, 648, 648, 647, 647, 647, 647, 647, 647, 647, 647, 646, 646, 646, 646, 646, 646, 646, 646, 646, 646, 646, 646, 646, 647, 647, 647, 648, 648, 648, 648, 649, 649, 649, 649, 651, 651, 651, 651, 651, 651, 650, 649, 649, 649, 649, 649, 648, 648, 647, 647, 647, 646, 646, 646, 646, 646, 646, 646, 646, 646, 646, 645, 645, 645, 645, 645, 645, 645, 645, 645, 645, 645, 645, 645, 645, 645, 645, 645, 645, 645, 645, 646, 646, 646, 645, 645, 645, 646, 646, 646, 646, 645, 645, 646, 646, 645, 645, 645, 646, 646, 646, 646, 646, 646, 646, 646, 646, 646, 646, 647, 647, 647, 647, 647, 647, 647, 647, 647, 647, 647, 647, 647, 647, 647, 647, 647, 645, 645, 645, 645, 644, 644, 643, 643, 643, 642, 642, 642, 642, 642, 642, 642, 642, 642, 642, 642, 642, 643, 643, 643, 643, 643, 643, 643, 645, 645, 645, 645, 645, 646, 647, 647, 647, 647, 647, 647, 647, 647, 647, 647, 647, 647, 647, 647, 648, 648, 648, 648, 648, 648, 648, 648, 648, 648, 648, 648, 648, 648, 648, 647, 647, 647, 647, 647, 647, 647, 647, 647, 647, 646, 645, 645, 645, 645, 645, 645, 645, 644, 643, 643, 643, 643, 642, 642, 643, 643, 643, 643, 643, 643, 643, 644, 644, 644, 645, 645, 645, 645, 645, 645, 646, 646, 646, 646, 646, 646, 647, 647, 647, 647, 647, 647, 647, 880, 880, 880, 880, 880, 880, 880, 880, 880, 880, 880, 879, 879, 877, 876, 876, 875, 874, 874, 871, 871, 869, 867, 867, 865, 865, 863, 860, 860, 859, 858, 858, 855, 855, 854, 853, 853, 851, 850, 850, 847, 847, 846, 844, 844, 843, 843, 840, 838, 838, 837, 835, 835, 834, 834, 831, 829, 829, 828, 827, 827
908, 908, 908, 909, 909, 909, 909, 909, 909, 909, 909, 909, 909, 909, 909, 908, 908, 906, 904, 904, 899, 896, 894, 886, 886, 874, 874, 861, 850, 850, 850, 0, 831, 823, 823, 815, 815, 812, 811, 811, 810, 810, 810, 810, 810, 810, 810, 810, 809, 809, 809, 808, 808, 808, 806, 806, 806, 806, 806, 808, 809, 809, 810, 812, 812, 815, 817, 817, 820, 823, 823, 826, 826, 829, 832, 832, 836, 839, 839, 845, 850, 850, 854, 859, 859, 865, 870, 870, 874, 877, 877, 880, 881, 881, 882, 882, 884, 884, 884, 884, 0, 0, 0, 0, 0, 0, 0, 0, 0, 0, 0, 0, 0, 0, 0, 0, 653, 653, 654, 653, 653, 653, 653, 653, 653, 653, 653, 653, 653, 653, 653, 653, 652, 652, 652, 651, 651, 651, 651, 651, 651, 650, 650, 650, 649, 649, 649, 649, 649, 649, 649, 649, 647, 647, 647, 647, 647, 647, 648, 648, 649, 649, 649, 649, 650, 650, 650, 650, 651, 651, 651, 651, 652, 652, 652, 653, 653, 653, 653, 654, 654, 654, 654, 654, 654, 654, 654, 654, 654, 654, 654, 654, 653, 653, 653, 653, 653, 653, 653, 653, 653, 653, 653, 652, 652, 652, 652, 652, 652, 653, 653, 653, 653, 653, 653, 653, 653, 653, 653, 653, 653, 653, 653, 653, 653, 652, 652, 652, 651, 651, 651, 651, 651, 651, 651, 651, 651, 651, 650, 650, 650, 651, 651, 650, 650, 650, 650, 650, 650, 650, 650, 650, 649, 649, 649, 649, 649, 648, 648, 648, 648, 648, 647, 647, 647, 647, 647, 647, 647, 647, 647, 648, 648, 648, 648, 648, 648, 648, 648, 648, 648, 648, 648, 648, 648, 649, 648, 648, 648, 648, 648, 648, 648, 649, 649, 649, 649, 649, 649, 649, 648, 648, 648, 648, 648, 647, 647, 647, 647, 647, 647, 647, 647, 647, 647, 647, 647, 647, 647, 646, 646, 646, 647, 647, 647, 647, 647, 647, 648, 648, 648, 649, 649, 649, 650, 650, 651, 651, 650, 650, 650, 649, 649, 649, 649, 649, 649, 649, 648, 647, 647, 647, 647, 647, 647, 647, 647, 647, 647, 647, 647, 647, 647, 647, 647, 647, 647, 647, 647, 647, 647, 647, 647, 647, 647, 647, 647, 647, 647, 647, 647, 647, 647, 647, 646, 646, 646, 646, 646, 646, 646, 646, 646, 646, 646, 646, 646, 646, 646, 646, 646, 646, 646, 646, 647, 647, 647, 647, 647, 647, 647, 647, 647, 647, 647, 647, 647, 647, 647, 647, 647, 647, 647, 647, 647, 647, 646, 646, 646, 645, 645, 645, 644, 644, 644, 643, 643, 643, 642, 642, 642, 643, 643, 643, 643, 643, 643, 643, 643, 643, 643, 643, 644, 644, 645, 645, 645, 646, 647, 647, 647, 647, 647, 647, 647, 648, 648, 648, 648, 648, 648, 648, 648, 648, 648, 648, 649, 649, 649, 649, 649, 649, 649, 649, 649, 649, 649, 649, 649, 648, 648, 648, 647, 647, 647, 647, 647, 647, 647, 646, 645, 645, 645, 645, 645, 645, 645, 644, 643, 643, 643, 643, 642, 642, 643, 643, 643, 643, 643, 643, 643, 643, 643, 643, 644, 644, 644, 644, 644, 645, 645, 645, 645, 646, 645, 645, 646, 646, 646, 646, 647, 647, 647, 880, 880, 880, 880, 880, 880, 880, 880, 880, 879, 879, 877, 877, 876, 875, 875, 874, 871, 871, 869, 869, 867, 865, 865, 863, 863, 860, 859, 859, 857, 855, 855, 853, 853, 852, 851, 851, 848, 847, 847, 845, 845, 843, 842, 842, 839, 839, 838, 836, 836, 834, 832, 832, 830, 830, 828, 827, 827, 826, 825, 825
909, 909, 909, 909, 909, 909, 909, 909, 909, 909, 909, 909, 909, 909, 909, 909, 909, 908, 906, 906, 902, 896, 894, 886, 886, 874, 874, 861, 850, 850, 843, 843, 831, 823, 823, 815, 815, 812, 811, 811, 810, 810, 810, 810, 810, 810, 810, 810, 809, 809, 809, 808, 808, 808, 806, 806, 806, 806, 806, 808, 809, 809, 810, 812, 812, 815, 817, 817, 820, 823, 823, 826, 826, 829, 832, 832, 836, 839, 839, 844, 848, 848, 854, 859, 859, 865, 870, 870, 874, 877, 877, 880, 881, 881, 882, 882, 884, 884, 884, 884, 0, 0, 0, 0, 0, 0, 0, 0, 0, 0, 0, 0, 0, 0, 0, 0, 653, 653, 654, 653, 653, 653, 653, 653, 653, 653, 653, 653, 653, 653, 653, 653, 652, 652, 652, 651, 651, 651, 651, 651, 651, 650, 650, 650, 649, 649, 649, 649, 649, 649, 649, 649, 649, 649, 649, 649, 649, 649, 649, 649, 649, 649, 649, 650, 650, 650, 651, 651, 651, 651, 651, 651, 652, 652, 652, 653, 653, 653, 653, 654, 654, 654, 654, 654, 654, 654, 654, 654, 654, 654, 653, 653, 653, 653, 653, 653, 653, 653, 653, 653, 653, 653, 653, 653, 653, 653, 653, 653, 653, 653, 653, 653, 653, 653, 653, 653, 653, 653, 653, 653, 654, 654, 654, 654, 653, 653, 653, 653, 653, 653, 653, 653, 653, 652, 652, 651, 651, 651, 651, 651, 651, 651, 651, 651, 651, 651, 651, 651, 651, 650, 650, 650, 650, 650, 650, 650, 649, 649, 649, 649, 648, 648, 648, 648, 649, 648, 648, 648, 648, 648, 648, 649, 649, 649, 649, 649, 649, 649, 649, 649, 649, 649, 649, 649, 649, 649, 649, 649, 649, 649, 649, 649, 649, 649, 649, 649, 649, 649, 649, 649, 648, 648, 648, 648, 648, 648, 648, 648, 648, 648, 647, 647, 647, 647, 647, 647, 647, 647, 647, 647, 647, 647, 647, 647, 647, 647, 647, 647, 648, 648, 648, 649, 649, 649, 650, 650, 651, 651, 650, 650, 650, 650, 650, 649, 649, 649, 649, 649, 648, 648, 648, 648, 648, 648, 648, 648, 648, 649, 649, 649, 649, 649, 649, 649, 649, 649, 649, 647, 647, 647, 647, 647, 647, 647, 647, 647, 647, 647, 647, 647, 647, 647, 647, 647, 646, 646, 646, 646, 646, 646, 646, 646, 646, 646, 646, 646, 646, 646, 646, 646, 646, 646, 646, 646, 647, 647, 647, 647, 647, 647, 647, 647, 647, 647, 647, 647, 647, 647, 647, 647, 647, 647, 647, 647, 647, 647, 646, 646, 646, 645, 645, 645, 644, 644, 644, 643, 643, 643, 642, 642, 642, 643, 643, 643, 643, 643, 643, 643, 643, 643, 643, 643, 644, 644, 645, 645, 645, 646, 647, 647, 647, 647, 647, 647, 647, 648, 648, 648, 648, 648, 648, 648, 648, 648, 648, 648, 649, 649, 649, 649, 649, 649, 649, 649, 649, 649, 649, 649, 649, 648, 648, 648, 648, 648, 648, 648, 648, 647, 647, 647, 647, 647, 646, 646, 646, 645, 645, 645, 645, 645, 643, 643, 643, 643, 643, 643, 643, 643, 643, 643, 642, 642, 642, 642, 642, 642, 642, 642, 642, 642, 643, 643, 643, 645, 645, 645, 645, 645, 645, 645, 645, 646, 646, 881, 881, 882, 881, 881, 881, 880, 880, 880, 879, 879, 876, 876, 875, 874, 874, 871, 871, 869, 866, 866, 864, 861, 861, 860, 860, 858, 857, 857, 854, 853, 853, 851, 851, 850, 850, 851, 848, 847, 847, 845, 845, 843, 842, 842, 839, 839, 838, 836, 836, 834, 832, 832, 830, 830, 828, 827, 827, 826, 825, 825
909, 909, 909, 909, 909, 909, 909, 909, 909, 909, 909, 909, 909, 909, 909, 909, 909, 908, 906, 906, 902, 896, 896, 890, 890, 879, 879, 865, 853, 853, 843, 843, 832, 824, 824, 815, 815, 812, 811, 811, 810, 810, 810, 810, 810, 810, 810, 810, 809, 809, 809, 808, 808, 808, 808, 808, 806, 806, 806, 808, 809, 809, 810, 812, 812, 815, 817, 817, 820, 823, 823, 826, 826, 829, 832, 832, 835, 838, 838, 843, 848, 848, 853, 859, 859, 865, 870, 870, 875, 880, 880, 882, 885, 885, 885, 885, 886, 886, 886, 887, 0, 0, 0, 0, 0, 0, 0, 0, 0, 0, 0, 0, 0, 0, 0, 0, 655, 655, 655, 655, 655, 655, 655, 655, 654, 654, 654, 654, 654, 655, 654, 654, 654, 653, 653, 653, 653, 653, 653, 653, 652, 651, 651, 651, 651, 651, 651, 651, 651, 650, 650, 650, 650, 650, 650, 650, 650, 650, 650, 650, 650, 651, 651, 651, 651, 651, 651, 651, 651, 652, 652, 652, 653, 653, 653, 653, 653, 653, 653, 654, 654, 654, 654, 654, 654, 654, 654, 654, 654, 654, 653, 653, 653, 653, 653, 653, 653, 653, 653, 653, 653, 654, 654, 653, 653, 653, 653, 653, 653, 653, 653, 653, 654, 654, 654, 654, 654, 654, 654, 654, 655, 655, 655, 655, 655, 655, 655, 655, 654, 654, 654, 654, 653, 653, 653, 653, 653, 653, 652, 652, 651, 651, 651, 651, 651, 651, 651, 651, 651, 650, 650, 650, 650, 650, 650, 650, 649, 649, 649, 649, 648, 648, 648, 648, 649, 648, 648, 648, 648, 648, 648, 649, 649, 649, 649, 649, 649, 649, 649, 649, 649, 649, 649, 649, 649, 649, 649, 649, 649, 649, 649, 649, 649, 649, 649, 649, 649, 649, 649, 649, 648, 648, 648, 648, 648, 648, 648, 648, 648, 648, 647, 647, 647, 647, 647, 647, 647, 647, 647, 647, 647, 647, 647, 647, 647, 647, 647, 647, 648, 648, 648, 649, 649, 649, 649, 649, 650, 650, 649, 649, 649, 649, 649, 649, 649, 649, 649, 649, 648, 648, 648, 648, 648, 648, 648, 648, 648, 649, 649, 649, 649, 649, 649, 649, 649, 649, 649, 649, 649, 649, 648, 648, 648, 647, 647, 647, 647, 647, 647, 647, 647, 647, 647, 647, 647, 647, 647, 647, 647, 647, 647, 646, 646, 646, 646, 646, 646, 646, 647, 647, 647, 647, 647, 647, 647, 647, 647, 647, 647, 647, 647, 647, 647, 647, 647, 647, 648, 648, 648, 648, 648, 648, 647, 647, 647, 647, 647, 646, 646, 645, 645, 645, 645, 645, 644, 644, 644, 644, 643, 643, 643, 644, 644, 643, 643, 643, 644, 644, 644, 644, 644, 644, 644, 644, 645, 645, 645, 646, 647, 647, 647, 647, 647, 648, 648, 648, 648, 648, 648, 648, 648, 648, 648, 649, 649, 649, 649, 649, 649, 649, 649, 649, 649, 649, 649, 649, 649, 649, 649, 649, 649, 649, 649, 649, 649, 649, 649, 648, 648, 647, 647, 647, 647, 647, 646, 646, 646, 645, 645, 645, 645, 645, 643, 643, 644, 643, 643, 643, 643, 643, 642, 642, 642, 642, 642, 642, 642, 642, 642, 642, 643, 643, 643, 645, 645, 645, 645, 645, 645, 645, 645, 646, 646, 882, 882, 882, 882, 882, 881, 880, 880, 880, 879, 879, 876, 876, 875, 874, 874, 871, 871, 869, 866, 866, 864, 861, 861, 860, 860, 858, 857, 857, 854, 853, 853, 851, 851, 850, 847, 847, 846, 846, 844, 843, 843, 840, 839, 839, 837, 837, 835, 834, 834, 831, 829, 829, 828, 828, 826, 825, 825, 824, 824, 821
911, 911, 911, 911, 911, 911, 911, 911, 911, 911, 911, 911, 911, 911, 911, 909, 909, 908, 907, 907, 903, 900, 900, 894, 894, 882, 882, 869, 857, 857, 845, 845, 836, 826, 826, 817, 817, 814, 812, 812, 811, 811, 811, 810, 810, 810, 810, 810, 809, 809, 809, 808, 808, 808, 808, 808, 808, 808, 808, 808, 809, 809, 811, 813, 813, 815, 817, 817, 820, 824, 824, 826, 829, 829, 832, 832, 835, 838, 838, 843, 848, 848, 853, 859, 859, 865, 870, 870, 876, 881, 881, 885, 886, 886, 887, 887, 890, 890, 890, 890, 0, 0, 0, 0, 0, 0, 0, 0, 0, 0, 0, 0, 0, 0, 0, 0, 655, 655, 655, 655, 655, 655, 655, 655, 654, 654, 654, 654, 654, 655, 654, 654, 654, 653, 653, 653, 653, 653, 653, 653, 652, 651, 651, 651, 651, 651, 651, 651, 651, 650, 650, 650, 650, 650, 650, 650, 650, 650, 650, 650, 650, 651, 651, 651, 651, 651, 651, 651, 651, 652, 652, 652, 653, 653, 653, 653, 653, 653, 653, 654, 654, 654, 654, 654, 654, 654, 654, 654, 654, 654, 653, 653, 653, 653, 653, 653, 653, 653, 653, 653, 653, 654, 654, 653, 653, 653, 653, 653, 653, 653, 653, 653, 654, 654, 654, 654, 654, 654, 654, 654, 655, 655, 655, 655, 655, 655, 655, 655, 654, 654, 654, 654, 653, 653, 653, 653, 653, 653, 652, 652, 652, 651, 651, 651, 651, 651, 651, 651, 651, 651, 651, 651, 651, 651, 651, 650, 650, 649, 649, 649, 649, 649, 649, 649, 649, 649, 649, 649, 649, 649, 649, 649, 649, 649, 650, 650, 650, 650, 650, 650, 650, 650, 650, 650, 650, 650, 649, 649, 649, 649, 649, 649, 649, 649, 649, 649, 649, 649, 649, 649, 649, 649, 649, 649, 649, 649, 649, 649, 648, 648, 648, 648, 648, 648, 648, 648, 648, 648, 647, 647, 647, 647, 647, 648, 648, 648, 648, 648, 648, 648, 648, 649, 649, 649, 649, 649, 650, 650, 649, 649, 649, 649, 649, 649, 649, 649, 649, 649, 648, 648, 649, 649, 649, 649, 649, 649, 649, 649, 650, 650, 650, 650, 650, 650, 650, 650, 650, 650, 650, 650, 649, 649, 649, 649, 649, 649, 649, 649, 649, 648, 648, 648, 648, 647, 647, 647, 647, 647, 647, 647, 647, 647, 647, 647, 646, 646, 646, 646, 647, 647, 647, 647, 647, 647, 647, 647, 647, 647, 647, 648, 648, 649, 649, 649, 649, 649, 649, 649, 649, 648, 648, 648, 648, 648, 647, 647, 647, 647, 647, 645, 645, 645, 645, 645, 645, 645, 645, 645, 645, 645, 645, 645, 645, 645, 645, 645, 645, 645, 645, 645, 645, 645, 645, 645, 645, 645, 645, 646, 647, 647, 647, 647, 647, 648, 648, 648, 648, 648, 648, 648, 648, 648, 648, 649, 649, 649, 649, 649, 649, 649, 649, 649, 649, 649, 649, 649, 649, 649, 649, 649, 649, 649, 649, 649, 649, 649, 649, 648, 648, 647, 647, 647, 647, 647, 646, 646, 646, 645, 645, 645, 645, 645, 643, 643, 644, 643, 643, 643, 643, 643, 642, 642, 642, 642, 642, 642, 642, 642, 642, 641, 641, 641, 642, 643, 643, 643, 643, 643, 644, 644, 644, 645, 645, 882, 882, 882, 882, 882, 881, 880, 880, 879, 876, 876, 875, 875, 872, 870, 870, 869, 869, 866, 864, 864, 861, 860, 860, 858, 858, 857, 854, 854, 852, 851, 851, 848, 848, 846, 845, 845, 843, 843, 842, 839, 839, 838, 836, 836, 835, 835, 832, 831, 831, 829, 827, 827, 826, 826, 824, 823, 823, 821, 821, 819
911, 911, 911, 911, 911, 911, 911, 911, 911, 911, 911, 911, 911, 911, 911, 909, 909, 908, 907, 907, 903, 900, 900, 894, 894, 882, 882, 869, 857, 857, 845, 845, 836, 826, 826, 817, 817, 814, 812, 812, 811, 811, 811, 810, 810, 810, 810, 810, 809, 809, 809, 808, 808, 808, 808, 808, 808, 808, 808, 808, 809, 809, 811, 813, 813, 815, 817, 817, 820, 824, 824, 826, 829, 829, 831, 831, 835, 838, 838, 843, 847, 847, 852, 859, 859, 865, 870, 870, 876, 881, 881, 885, 886, 886, 887, 887, 890, 890, 890, 890, 0, 0, 0, 0, 0, 0, 0, 0, 0, 0, 0, 0, 0, 0, 0, 0, 655, 655, 655, 655, 655, 655, 655, 655, 655, 655, 655, 655, 655, 655, 655, 655, 655, 655, 655, 655, 655, 655, 654, 653, 653, 653, 653, 653, 653, 653, 653, 652, 652, 652, 652, 652, 651, 651, 651, 651, 651, 651, 651, 651, 651, 652, 652, 652, 652, 652, 652, 652, 652, 653, 653, 653, 653, 653, 653, 654, 654, 654, 654, 654, 654, 654, 654, 654, 654, 654, 654, 654, 654, 654, 654, 654, 654, 654, 654, 654, 654, 654, 654, 654, 654, 654, 655, 655, 655, 655, 655, 655, 655, 655, 655, 655, 655, 655, 655, 655, 655, 655, 655, 655, 656, 656, 656, 656, 656, 656, 656, 656, 656, 656, 656, 656, 655, 655, 655, 654, 654, 654, 653, 653, 653, 653, 653, 653, 652, 652, 652, 652, 652, 651, 651, 651, 652, 652, 652, 651, 651, 651, 651, 651, 650, 650, 650, 650, 651, 650, 650, 650, 650, 650, 650, 650, 651, 651, 651, 651, 651, 651, 651, 650, 650, 650, 650, 650, 650, 650, 649, 649, 649, 649, 649, 649, 649, 649, 649, 649, 649, 649, 649, 649, 649, 649, 649, 649, 649, 649, 649, 649, 649, 649, 649, 649, 649, 649, 649, 649, 649, 649, 649, 648, 648, 648, 648, 648, 648, 648, 649, 648, 648, 648, 648, 649, 649, 649, 649, 649, 650, 649, 649, 649, 649, 649, 649, 649, 649, 649, 649, 649, 648, 648, 649, 649, 649, 649, 649, 649, 649, 649, 650, 650, 650, 650, 650, 650, 650, 650, 650, 650, 650, 650, 649, 649, 649, 649, 649, 649, 649, 649, 649, 648, 648, 648, 648, 647, 647, 647, 647, 647, 647, 647, 647, 647, 647, 647, 646, 646, 646, 646, 647, 647, 647, 647, 647, 647, 647, 647, 647, 647, 647, 648, 648, 649, 649, 649, 649, 649, 649, 649, 649, 648, 648, 648, 648, 648, 647, 647, 647, 647, 647, 645, 645, 645, 645, 645, 645, 645, 645, 645, 645, 645, 645, 645, 645, 645, 645, 645, 645, 645, 645, 645, 645, 645, 645, 645, 645, 646, 646, 646, 647, 647, 647, 647, 648, 648, 648, 648, 648, 648, 648, 648, 649, 649, 649, 649, 649, 649, 649, 649, 649, 649, 649, 649, 650, 650, 650, 650, 650, 650, 649, 649, 649, 649, 649, 649, 649, 649, 649, 649, 649, 649, 648, 648, 647, 647, 647, 647, 647, 646, 645, 645, 645, 645, 644, 644, 644, 644, 643, 643, 643, 643, 642, 642, 642, 642, 642, 642, 642, 642, 641, 641, 641, 641, 642, 642, 642, 642, 642, 642, 643, 643, 644, 645, 645, 884, 882, 882, 882, 882, 881, 880, 880, 879, 876, 876, 875, 875, 872, 870, 870, 869, 869, 866, 864, 864, 861, 860, 860, 858, 858, 857, 854, 854, 852, 851, 851, 848, 848, 846, 845, 845, 843, 843, 842, 839, 839, 838, 836, 836, 835, 835, 832, 831, 831, 829, 827, 827, 826, 826, 824, 823, 823, 821, 821, 819
914, 914, 914, 914, 912, 912, 912, 912, 912, 911, 911, 911, 911, 911, 911, 909, 909, 909, 907, 907, 906, 903, 903, 896, 896, 885, 875, 872, 860, 860, 848, 848, 838, 828, 828, 819, 819, 815, 812, 812, 811, 811, 811, 811, 811, 810, 810, 810, 809, 809, 809, 808, 808, 808, 808, 808, 808, 808, 809, 809, 810, 810, 811, 813, 813, 815, 818, 818, 820, 824, 824, 826, 828, 828, 830, 830, 835, 838, 838, 843, 847, 847, 852, 859, 859, 865, 871, 871, 877, 882, 882, 886, 889, 889, 890, 892, 892, 892, 892, 0, 0, 0, 0, 0, 0, 0, 0, 0, 0, 0, 0, 0, 0, 0, 0, 0, 656, 656, 656, 656, 656, 656, 656, 656, 656, 656, 656, 656, 656, 657, 657, 656, 656, 656, 656, 656, 656, 656, 655, 655, 655, 655, 655, 655, 654, 654, 654, 653, 653, 653, 653, 653, 653, 653, 653, 653, 653, 653, 653, 653, 653, 653, 653, 653, 653, 653, 653, 653, 653, 653, 653, 653, 654, 654, 654, 655, 655, 655, 655, 655, 655, 655, 655, 655, 655, 655, 655, 655, 655, 655, 655, 655, 655, 655, 655, 655, 655, 655, 655, 655, 655, 655, 655, 655, 655, 655, 655, 655, 655, 655, 655, 655, 655, 655, 655, 655, 655, 655, 655, 655, 656, 656, 656, 656, 656, 656, 656, 656, 656, 656, 656, 656, 655, 655, 655, 654, 654, 654, 653, 653, 653, 653, 653, 653, 652, 652, 652, 652, 652, 651, 651, 651, 652, 652, 652, 651, 651, 651, 651, 651, 650, 650, 650, 650, 651, 650, 650, 650, 650, 650, 650, 650, 651, 651, 651, 651, 651, 651, 651, 650, 650, 650, 650, 650, 650, 650, 649, 649, 649, 649, 649, 649, 649, 649, 649, 649, 649, 649, 649, 649, 649, 649, 649, 649, 649, 649, 649, 649, 649, 649, 649, 649, 649, 649, 649, 649, 649, 649, 649, 648, 648, 648, 648, 648, 648, 648, 649, 649, 649, 649, 649, 649, 649, 649, 649, 649, 650, 649, 649, 649, 649, 649, 649, 649, 649, 649, 649, 649, 649, 649, 649, 649, 649, 649, 649, 650, 650, 651, 651, 651, 651, 651, 651, 651, 651, 651, 651, 651, 651, 651, 651, 651, 651, 650, 650, 649, 649, 649, 649, 649, 649, 648, 648, 648, 647, 647, 647, 647, 647, 647, 647, 647, 647, 647, 647, 647, 647, 647, 647, 647, 647, 647, 647, 647, 648, 648, 648, 648, 648, 649, 649, 649, 649, 649, 649, 649, 649, 649, 649, 649, 649, 649, 648, 648, 647, 647, 647, 647, 647, 646, 645, 645, 645, 645, 645, 645, 645, 645, 645, 645, 645, 645, 645, 645, 645, 645, 645, 645, 645, 645, 645, 645, 645, 645, 646, 647, 647, 647, 647, 647, 647, 647, 648, 648, 648, 649, 649, 649, 649, 649, 649, 649, 649, 649, 649, 649, 649, 650, 650, 650, 650, 650, 650, 650, 650, 651, 651, 651, 651, 651, 651, 650, 650, 650, 650, 650, 650, 650, 650, 649, 649, 649, 649, 649, 648, 647, 647, 647, 646, 646, 646, 646, 645, 645, 645, 645, 644, 644, 644, 644, 643, 642, 642, 642, 642, 642, 642, 642, 641, 641, 641, 641, 642, 642, 642, 642, 642, 642, 643, 643, 644, 884, 884, 884, 882, 882, 881, 881, 880, 879, 879, 876, 875, 875, 872, 872, 870, 869, 869, 866, 866, 864, 861, 861, 860, 858, 858, 855, 855, 854, 852, 852, 850, 850, 847, 846, 846, 844, 842, 842, 840, 840, 838, 837, 837, 836, 834, 834, 832, 832, 830, 829, 829, 827, 826, 826, 824, 824, 823, 820, 820, 819, 819, 817
915, 915, 916, 916, 915, 915, 915, 914, 914, 914, 912, 912, 912, 912, 912, 911, 911, 911, 908, 908, 906, 903, 903, 898, 898, 887, 875, 875, 875, 0, 0, 0, 840, 830, 830, 821, 821, 816, 813, 813, 812, 812, 812, 811, 811, 811, 810, 810, 810, 810, 809, 809, 809, 809, 808, 808, 808, 808, 809, 809, 810, 810, 812, 814, 814, 816, 818, 818, 820, 824, 824, 826, 828, 828, 830, 830, 834, 837, 837, 842, 846, 846, 851, 857, 857, 864, 870, 870, 876, 882, 882, 886, 889, 889, 890, 892, 892, 892, 892, 894, 894, 894, 0, 0, 0, 0, 0, 0, 0, 0, 0, 0, 0, 0, 0, 0, 656, 656, 656, 656, 656, 656, 656, 656, 656, 656, 656, 656, 656, 657, 657, 656, 656, 656, 656, 656, 656, 656, 655, 655, 655, 655, 655, 655, 654, 654, 654, 653, 653, 653, 653, 653, 653, 653, 653, 653, 653, 653, 653, 653, 653, 653, 653, 653, 653, 653, 653, 653, 653, 653, 653, 653, 654, 654, 654, 655, 655, 655, 655, 655, 655, 655, 655, 655, 655, 655, 655, 655, 655, 655, 655, 655, 655, 655, 655, 655, 655, 655, 655, 655, 655, 655, 655, 655, 655, 655, 655, 655, 655, 655, 655, 655, 656, 656, 656, 656, 656, 657, 657, 657, 658, 658, 658, 658, 658, 658, 658, 658, 658, 658, 658, 657, 657, 656, 656, 655, 655, 655, 654, 654, 654, 654, 654, 653, 653, 653, 653, 653, 653, 653, 653, 653, 653, 653, 653, 653, 653, 653, 653, 651, 651, 651, 651, 651, 651, 651, 651, 651, 651, 651, 651, 651, 651, 651, 651, 651, 651, 651, 651, 651, 651, 651, 651, 651, 651, 651, 651, 650, 650, 650, 650, 650, 650, 650, 650, 650, 650, 650, 650, 650, 650, 650, 650, 650, 650, 650, 650, 650, 650, 650, 650, 650, 650, 650, 650, 650, 650, 649, 649, 649, 649, 649, 649, 649, 649, 649, 649, 649, 649, 649, 649, 649, 649, 649, 650, 650, 650, 649, 649, 649, 649, 649, 649, 649, 649, 649, 649, 649, 649, 649, 650, 650, 650, 651, 651, 651, 651, 651, 652, 652, 653, 653, 653, 653, 653, 653, 653, 653, 653, 653, 652, 652, 652, 651, 651, 651, 650, 650, 650, 649, 649, 649, 649, 648, 647, 647, 647, 647, 647, 647, 647, 647, 647, 647, 647, 647, 647, 647, 647, 647, 647, 647, 647, 647, 648, 648, 649, 649, 649, 649, 649, 649, 649, 649, 649, 649, 649, 649, 649, 649, 649, 649, 648, 648, 647, 647, 647, 647, 647, 646, 645, 645, 645, 645, 645, 645, 645, 645, 645, 645, 645, 645, 645, 645, 645, 645, 645, 645, 645, 645, 645, 645, 645, 645, 646, 647, 647, 647, 647, 647, 647, 647, 648, 648, 648, 649, 649, 649, 649, 649, 649, 649, 649, 649, 649, 649, 649, 650, 650, 650, 650, 650, 650, 650, 650, 651, 651, 651, 651, 651, 651, 650, 650, 650, 650, 650, 650, 650, 650, 649, 649, 649, 649, 649, 648, 647, 647, 647, 646, 646, 646, 646, 645, 645, 645, 645, 644, 644, 644, 644, 643, 642, 642, 642, 642, 642, 642, 642, 641, 641, 641, 641, 641, 642, 642, 642, 642, 642, 642, 642, 643, 884, 884, 882, 882, 882, 881, 881, 879, 876, 876, 875, 872, 872, 870, 870, 867, 866, 866, 864, 864, 861, 860, 860, 858, 855, 855, 853, 853, 852, 850, 850, 847, 847, 845, 843, 843, 842, 839, 839, 838, 838, 836, 835, 835, 834, 832, 832, 830, 830, 829, 827, 827, 826, 825, 825, 823, 823, 820, 819, 819, 817, 817, 815
915, 915, 916, 916, 915, 915, 915, 914, 914, 914, 912, 912, 912, 912, 912, 911, 911, 911, 908, 908, 906, 903, 903, 898, 898, 887, 875, 875, 875, 0, 0, 0, 840, 830, 830, 821, 821, 816, 813, 813, 812, 812, 812, 811, 811, 811, 810, 810, 810, 810, 809, 809, 809, 809, 808, 808, 808, 808, 809, 809, 810, 810, 812, 814, 814, 816, 818, 818, 820, 824, 824, 826, 828, 828, 830, 830, 832, 836, 836, 839, 844, 844, 850, 855, 855, 863, 869, 869, 875, 881, 881, 886, 889, 889, 891, 894, 894, 894, 894, 894, 894, 894, 0, 0, 0, 0, 0, 0, 0, 0, 0, 0, 0, 0, 0, 0, 0, 657, 657, 657, 657, 657, 657, 657, 657, 657, 657, 657, 658, 658, 658, 658, 658, 658, 658, 658, 658, 658, 658, 657, 657, 657, 657, 657, 656, 656, 655, 655, 655, 655, 655, 654, 654, 654, 654, 654, 654, 654, 654, 654, 654, 654, 654, 654, 654, 654, 654, 654, 654, 654, 654, 655, 655, 655, 655, 655, 655, 655, 655, 655, 656, 655, 655, 655, 655, 655, 655, 655, 655, 655, 655, 655, 655, 655, 655, 655, 656, 655, 655, 656, 656, 656, 656, 656, 656, 656, 656, 657, 657, 657, 657, 657, 657, 658, 658, 658, 658, 658, 658, 658, 659, 659, 659, 660, 660, 660, 660, 660, 660, 660, 660, 658, 658, 658, 658, 657, 656, 656, 655, 655, 655, 655, 655, 655, 655, 655, 655, 655, 655, 655, 655, 655, 655, 655, 655, 655, 655, 653, 653, 653, 653, 653, 653, 653, 653, 653, 653, 653, 652, 652, 652, 653, 653, 653, 653, 653, 652, 652, 652, 652, 652, 651, 651, 652, 651, 651, 651, 651, 651, 650, 650, 650, 650, 650, 650, 650, 650, 650, 650, 650, 650, 650, 650, 650, 650, 650, 650, 650, 650, 650, 650, 650, 650, 650, 650, 650, 650, 649, 649, 649, 649, 649, 649, 649, 649, 649, 649, 649, 649, 649, 649, 649, 649, 649, 650, 650, 650, 649, 649, 649, 649, 649, 649, 649, 649, 649, 649, 649, 649, 649, 650, 650, 650, 651, 651, 651, 651, 651, 652, 652, 653, 653, 653, 653, 653, 653, 653, 653, 653, 653, 652, 652, 652, 651, 651, 651, 650, 650, 650, 649, 649, 649, 649, 648, 647, 647, 647, 647, 647, 647, 647, 647, 647, 647, 647, 647, 647, 647, 647, 647, 647, 647, 647, 647, 648, 648, 649, 649, 649, 649, 649, 649, 649, 649, 649, 649, 649, 649, 649, 649, 649, 649, 648, 648, 647, 647, 647, 647, 647, 646, 645, 645, 645, 645, 645, 645, 645, 645, 645, 645, 645, 645, 645, 646, 646, 646, 646, 646, 646, 646, 646, 646, 646, 646, 647, 647, 647, 647, 647, 647, 648, 648, 648, 648, 648, 649, 649, 649, 649, 649, 649, 649, 649, 649, 649, 649, 650, 650, 650, 650, 650, 651, 651, 651, 651, 651, 651, 651, 651, 651, 651, 651, 651, 651, 651, 651, 650, 650, 650, 650, 649, 649, 649, 649, 649, 648, 648, 647, 647, 647, 647, 647, 646, 645, 645, 645, 645, 645, 644, 644, 644, 644, 644, 643, 642, 642, 642, 642, 642, 641, 641, 641, 641, 642, 642, 642, 642, 642, 642, 642, 643, 884, 884, 882, 882, 882, 881, 881, 879, 876, 876, 875, 872, 872, 870, 870, 867, 866, 866, 864, 864, 861, 860, 860, 858, 855, 855, 853, 853, 852, 850, 850, 847, 847, 845, 843, 843, 842, 839, 839, 838, 838, 836, 835, 835, 834, 832, 832, 830, 830, 829, 827, 827, 826, 825, 825, 823, 823, 820, 819, 819, 817, 817, 815
916, 916, 918, 918, 918, 916, 916, 915, 915, 915, 914, 914, 914, 914, 914, 912, 912, 911, 911, 911, 908, 904, 904, 899, 899, 890, 877, 877, 866, 866, 854, 854, 842, 831, 831, 823, 823, 817, 813, 813, 812, 812, 812, 812, 812, 811, 810, 810, 810, 810, 810, 809, 809, 809, 809, 809, 809, 809, 810, 810, 811, 811, 813, 814, 814, 816, 819, 819, 820, 824, 824, 826, 828, 828, 830, 830, 832, 836, 836, 839, 844, 844, 850, 855, 855, 863, 869, 869, 875, 881, 881, 886, 889, 889, 891, 894, 894, 894, 894, 894, 894, 894, 0, 0, 0, 0, 0, 0, 0, 0, 0, 0, 0, 0, 0, 0, 0, 658, 658, 658, 658, 658, 658, 658, 658, 658, 658, 658, 658, 659, 659, 659, 660, 660, 660, 660, 660, 660, 659, 659, 659, 658, 658, 658, 658, 658, 657, 656, 656, 656, 656, 656, 655, 655, 655, 655, 655, 655, 655, 655, 655, 655, 655, 654, 654, 654, 654, 654, 654, 654, 654, 655, 655, 655, 655, 655, 655, 655, 655, 655, 656, 655, 655, 655, 655, 655, 655, 655, 655, 655, 655, 655, 655, 655, 655, 655, 656, 655, 655, 656, 656, 656, 656, 656, 656, 656, 656, 657, 657, 657, 657, 657, 657, 658, 658, 658, 658, 658, 658, 658, 659, 659, 659, 660, 660, 660, 660, 660, 660, 660, 660, 658, 658, 658, 658, 657, 656, 656, 655, 655, 655, 655, 655, 655, 655, 655, 655, 655, 655, 655, 655, 655, 655, 655, 655, 655, 655, 653, 653, 653, 653, 653, 653, 653, 653, 653, 653, 653, 652, 652, 652, 653, 653, 653, 653, 653, 652, 652, 652, 652, 652, 651, 651, 652, 651, 651, 651, 651, 651, 651, 651, 651, 651, 651, 651, 651, 651, 651, 651, 651, 651, 651, 651, 651, 651, 651, 651, 651, 651, 651, 651, 651, 651, 651, 651, 651, 651, 651, 651, 650, 650, 650, 650, 650, 650, 649, 649, 649, 649, 649, 649, 649, 649, 649, 650, 650, 650, 650, 650, 650, 650, 649, 649, 649, 649, 649, 649, 649, 649, 650, 651, 651, 651, 651, 651, 652, 652, 653, 653, 653, 653, 654, 654, 654, 654, 654, 654, 654, 653, 653, 653, 653, 653, 652, 652, 651, 651, 651, 650, 649, 649, 649, 649, 649, 647, 647, 647, 647, 647, 647, 647, 647, 647, 647, 647, 647, 647, 647, 647, 647, 647, 647, 647, 648, 648, 648, 649, 649, 649, 649, 649, 650, 650, 650, 650, 650, 650, 650, 650, 649, 649, 649, 649, 649, 648, 648, 647, 647, 647, 647, 646, 646, 645, 645, 645, 645, 645, 645, 645, 645, 645, 646, 646, 646, 646, 646, 647, 647, 647, 647, 647, 647, 647, 647, 647, 647, 647, 647, 648, 648, 648, 648, 649, 649, 649, 649, 649, 649, 649, 649, 649, 649, 649, 650, 650, 650, 650, 650, 650, 650, 650, 651, 651, 651, 651, 651, 651, 651, 651, 651, 651, 651, 651, 651, 651, 651, 651, 651, 651, 650, 650, 650, 649, 649, 649, 648, 648, 647, 647, 647, 647, 647, 646, 645, 645, 645, 645, 645, 644, 644, 644, 644, 644, 643, 642, 642, 642, 642, 642, 641, 641, 641, 641, 642, 642, 642, 642, 642, 642, 642, 642, 882, 882, 881, 880, 880, 879, 879, 877, 875, 875, 871, 871, 870, 867, 867, 865, 863, 863, 861, 861, 859, 858, 858, 855, 853, 853, 852, 852, 850, 847, 847, 845, 845, 843, 840, 840, 839, 837, 837, 836, 836, 835, 832, 832, 831, 830, 830, 829, 829, 828, 826, 826, 825, 825, 823, 821, 821, 819, 817, 817, 815, 815, 813
918, 918, 919, 919, 919, 918, 918, 918, 918, 916, 915, 915, 915, 915, 915, 914, 914, 914, 912, 912, 909, 907, 907, 903, 903, 894, 880, 880, 866, 866, 854, 854, 843, 832, 832, 823, 823, 817, 813, 813, 812, 812, 812, 812, 812, 811, 810, 810, 810, 810, 810, 809, 809, 809, 809, 809, 809, 809, 810, 810, 811, 811, 813, 814, 814, 816, 819, 819, 820, 824, 824, 825, 827, 827, 829, 829, 831, 835, 835, 839, 843, 843, 847, 853, 853, 860, 867, 867, 875, 880, 880, 885, 889, 889, 891, 894, 894, 894, 894, 894, 894, 894, 0, 0, 0, 0, 0, 0, 0, 0, 0, 0, 0, 0, 0, 0, 0, 658, 658, 658, 658, 658, 658, 658, 658, 658, 658, 658, 658, 659, 659, 659, 660, 660, 660, 660, 660, 660, 659, 659, 659, 658, 658, 658, 658, 658, 657, 656, 656, 656, 656, 656, 655, 655, 655, 655, 655, 655, 655, 655, 655, 655, 655, 655, 655, 655, 655, 655, 655, 655, 655, 655, 656, 656, 656, 657, 657, 657, 657, 657, 657, 656, 656, 656, 656, 656, 656, 656, 656, 656, 656, 656, 656, 656, 656, 656, 657, 657, 657, 657, 657, 657, 657, 657, 658, 658, 658, 658, 658, 658, 658, 658, 658, 659, 659, 659, 659, 660, 660, 660, 661, 661, 661, 662, 662, 662, 662, 662, 662, 662, 661, 660, 660, 659, 659, 658, 658, 658, 657, 656, 656, 656, 656, 656, 656, 656, 656, 655, 655, 655, 656, 656, 656, 657, 657, 656, 656, 655, 655, 655, 655, 655, 655, 655, 655, 655, 654, 654, 653, 653, 653, 653, 653, 653, 653, 653, 653, 653, 653, 652, 652, 652, 652, 652, 651, 651, 651, 651, 651, 651, 651, 651, 651, 651, 651, 651, 651, 651, 651, 651, 651, 651, 651, 652, 652, 652, 652, 652, 652, 652, 652, 652, 652, 652, 653, 653, 652, 652, 652, 652, 652, 652, 651, 651, 651, 651, 651, 651, 651, 650, 650, 651, 650, 650, 650, 650, 650, 650, 650, 650, 650, 650, 650, 650, 650, 650, 650, 651, 651, 651, 651, 651, 651, 652, 652, 653, 653, 653, 654, 654, 655, 655, 655, 655, 655, 655, 655, 654, 654, 654, 653, 653, 653, 653, 653, 651, 651, 651, 650, 649, 649, 649, 649, 649, 647, 647, 647, 647, 647, 647, 647, 647, 647, 647, 647, 647, 647, 647, 647, 647, 647, 647, 647, 648, 648, 648, 649, 649, 649, 649, 649, 650, 650, 650, 650, 650, 650, 650, 650, 649, 649, 649, 649, 649, 648, 648, 647, 647, 647, 647, 646, 646, 645, 645, 645, 645, 645, 645, 645, 645, 645, 646, 646, 646, 646, 646, 647, 647, 647, 647, 647, 647, 647, 647, 647, 647, 647, 647, 648, 648, 648, 648, 649, 649, 649, 649, 649, 649, 649, 649, 649, 649, 649, 650, 650, 650, 650, 650, 650, 650, 650, 651, 651, 651, 651, 651, 651, 651, 651, 651, 651, 651, 651, 651, 651, 651, 651, 651, 651, 650, 650, 650, 649, 649, 649, 649, 649, 648, 648, 648, 647, 647, 647, 647, 647, 646, 646, 646, 645, 645, 645, 644, 644, 644, 643, 643, 642, 642, 642, 642, 642, 642, 642, 642, 642, 642, 642, 642, 642, 642, 642, 881, 881, 880, 879, 879, 877, 877, 875, 871, 871, 869, 869, 866, 865, 865, 863, 861, 861, 859, 859, 857, 855, 855, 853, 852, 852, 850, 850, 847, 845, 845, 843, 843, 840, 839, 839, 837, 836, 836, 834, 834, 832, 831, 831, 830, 829, 829, 829, 829, 828, 826, 826, 825, 825, 823, 821, 821, 819, 817, 817, 815, 815, 813
918, 918, 919, 919, 919, 918, 918, 918, 918, 916, 915, 915, 915, 915, 915, 914, 914, 914, 912, 912, 909, 907, 907, 903, 903, 894, 880, 880, 866, 866, 854, 854, 843, 832, 832, 824, 824, 818, 815, 815, 814, 814, 813, 813, 813, 812, 811, 811, 811, 810, 810, 810, 810, 810, 810, 810, 810, 810, 811, 811, 813, 813, 814, 816, 816, 817, 820, 820, 821, 824, 824, 825, 827, 827, 829, 829, 831, 834, 834, 837, 842, 842, 846, 852, 852, 859, 866, 866, 872, 879, 879, 884, 887, 887, 891, 892, 892, 894, 894, 894, 894, 894, 0, 0, 0, 0, 0, 0, 0, 0, 0, 0, 0, 0, 660, 660, 660, 658, 658, 658, 658, 658, 658, 658, 659, 659, 659, 659, 659, 660, 660, 660, 660, 660, 661, 661, 660, 660, 660, 660, 660, 660, 660, 659, 659, 659, 658, 658, 658, 657, 657, 657, 656, 656, 656, 656, 656, 656, 656, 656, 656, 656, 656, 656, 656, 656, 656, 656, 656, 657, 657, 657, 658, 658, 658, 658, 658, 658, 658, 658, 658, 658, 658, 658, 658, 658, 658, 657, 657, 657, 657, 657, 657, 657, 657, 657, 658, 658, 658, 658, 658, 658, 658, 658, 658, 659, 659, 659, 659, 659, 659, 659, 660, 660, 660, 660, 660, 660, 662, 662, 662, 662, 662, 663, 663, 663, 664, 664, 663, 663, 663, 662, 662, 661, 661, 660, 659, 659, 658, 657, 657, 657, 657, 657, 657, 657, 657, 657, 657, 657, 657, 656, 656, 657, 657, 656, 656, 655, 655, 655, 655, 655, 655, 655, 655, 655, 654, 654, 653, 653, 653, 653, 653, 653, 653, 653, 653, 653, 653, 652, 652, 652, 652, 652, 651, 651, 651, 651, 651, 651, 651, 651, 651, 651, 651, 651, 651, 651, 651, 651, 651, 651, 651, 652, 652, 652, 652, 652, 652, 652, 652, 652, 652, 652, 653, 653, 652, 652, 652, 652, 652, 652, 651, 651, 651, 651, 651, 651, 651, 650, 650, 651, 650, 650, 650, 650, 650, 650, 650, 650, 650, 650, 650, 650, 650, 650, 650, 651, 651, 651, 651, 651, 651, 652, 652, 653, 653, 653, 654, 654, 655, 655, 655, 655, 655, 655, 655, 654, 654, 654, 653, 653, 653, 653, 653, 651, 651, 651, 651, 650, 650, 649, 649, 649, 648, 648, 647, 647, 647, 647, 647, 647, 647, 647, 647, 647, 647, 647, 647, 647, 647, 648, 648, 649, 649, 649, 649, 650, 650, 650, 650, 651, 651, 651, 651, 651, 651, 651, 651, 650, 650, 650, 649, 649, 649, 649, 648, 647, 647, 647, 647, 647, 647, 647, 646, 646, 646, 646, 647, 647, 647, 647, 647, 647, 647, 647, 647, 647, 647, 647, 647, 647, 647, 647, 648, 648, 648, 648, 648, 648, 649, 649, 649, 649, 649, 649, 649, 649, 649, 649, 650, 650, 650, 650, 650, 650, 650, 650, 650, 650, 650, 651, 651, 651, 651, 651, 651, 651, 651, 651, 651, 651, 651, 651, 651, 651, 651, 651, 651, 650, 650, 650, 650, 650, 650, 649, 649, 649, 649, 649, 648, 648, 647, 647, 647, 647, 647, 647, 647, 647, 646, 645, 645, 645, 645, 645, 644, 644, 643, 642, 642, 642, 642, 642, 642, 642, 642, 642, 642, 642, 642, 881, 881, 880, 879, 879, 877, 877, 875, 871, 871, 869, 869, 866, 865, 865, 863, 861, 861, 859, 859, 857, 855, 855, 853, 852, 852, 850, 850, 847, 845, 845, 843, 843, 840, 839, 839, 837, 836, 836, 834, 834, 832, 831, 831, 830, 829, 829, 828, 828, 827, 825, 825, 824, 824, 823, 820, 820, 818, 816, 816, 814, 814, 812
919, 919, 920, 920, 920, 919, 919, 919, 919, 918, 918, 918, 918, 916, 916, 916, 915, 915, 914, 914, 912, 909, 909, 906, 906, 898, 885, 885, 871, 871, 858, 858, 846, 836, 836, 827, 827, 820, 817, 817, 815, 814, 814, 814, 814, 813, 812, 812, 812, 811, 811, 811, 811, 810, 810, 811, 811, 811, 812, 812, 813, 813, 815, 816, 816, 818, 820, 820, 823, 824, 824, 826, 827, 827, 829, 829, 831, 834, 834, 837, 842, 842, 846, 852, 852, 859, 866, 866, 872, 879, 879, 884, 887, 887, 891, 892, 892, 894, 894, 0, 0, 0, 0, 0, 0, 0, 0, 0, 0, 0, 0, 0, 0, 0, 660, 660, 660, 660, 660, 660, 660, 660, 660, 660, 660, 659, 659, 659, 659, 660, 660, 660, 660, 660, 661, 661, 660, 660, 660, 660, 660, 660, 660, 659, 659, 659, 658, 658, 658, 657, 657, 657, 656, 656, 656, 656, 656, 656, 656, 656, 656, 656, 656, 656, 656, 656, 656, 656, 656, 657, 657, 657, 658, 658, 658, 658, 658, 658, 658, 658, 658, 658, 658, 658, 658, 658, 658, 657, 657, 657, 657, 657, 657, 657, 657, 657, 658, 658, 658, 658, 658, 658, 658, 658, 658, 659, 659, 659, 659, 659, 659, 659, 660, 660, 660, 660, 660, 660, 662, 662, 662, 662, 662, 663, 663, 663, 664, 664, 663, 663, 663, 662, 662, 661, 661, 660, 659, 659, 658, 657, 657, 657, 657, 657, 657, 657, 657, 657, 657, 657, 657, 657, 658, 659, 659, 658, 658, 658, 658, 658, 658, 658, 658, 658, 658, 657, 656, 656, 655, 655, 655, 655, 655, 655, 654, 654, 654, 654, 653, 653, 653, 653, 653, 653, 653, 653, 652, 651, 651, 651, 651, 651, 651, 651, 651, 652, 652, 652, 652, 652, 652, 652, 653, 653, 653, 653, 653, 653, 653, 653, 653, 653, 653, 653, 653, 654, 654, 653, 653, 653, 653, 653, 653, 653, 653, 653, 653, 653, 653, 652, 652, 652, 652, 652, 652, 652, 652, 652, 651, 651, 651, 651, 651, 651, 651, 651, 651, 651, 651, 651, 651, 651, 653, 653, 653, 654, 655, 655, 655, 655, 655, 655, 655, 655, 655, 655, 655, 655, 655, 655, 654, 653, 653, 653, 653, 652, 651, 651, 651, 650, 650, 650, 650, 649, 648, 648, 648, 647, 647, 647, 647, 647, 647, 647, 647, 647, 647, 647, 647, 647, 648, 649, 649, 649, 649, 649, 650, 651, 651, 651, 651, 651, 651, 651, 651, 651, 651, 651, 651, 651, 651, 651, 650, 650, 649, 649, 649, 649, 649, 648, 647, 647, 647, 647, 647, 647, 647, 647, 647, 647, 647, 648, 648, 648, 649, 649, 649, 649, 649, 649, 649, 649, 649, 649, 649, 649, 649, 649, 649, 649, 649, 649, 649, 649, 649, 649, 649, 649, 649, 649, 650, 650, 650, 650, 650, 650, 650, 650, 650, 650, 650, 651, 651, 651, 651, 651, 651, 651, 651, 651, 651, 651, 651, 651, 651, 651, 651, 651, 651, 650, 650, 650, 650, 650, 650, 649, 649, 649, 649, 649, 648, 648, 647, 647, 647, 647, 647, 647, 647, 647, 646, 645, 645, 645, 645, 645, 644, 644, 643, 642, 642, 642, 642, 642, 642, 642, 642, 642, 642, 642, 642, 879, 879, 877, 876, 876, 875, 875, 872, 869, 869, 866, 866, 865, 863, 863, 860, 859, 859, 857, 857, 855, 853, 853, 852, 850, 850, 847, 847, 845, 843, 843, 840, 840, 839, 837, 837, 835, 834, 834, 832, 832, 831, 830, 830, 829, 828, 828, 827, 827, 826, 825, 825, 823, 823, 821, 819, 819, 818, 816, 816, 814, 814, 812
919, 919, 920, 920, 920, 919, 919, 919, 919, 918, 918, 918, 918, 916, 916, 916, 915, 915, 914, 914, 912, 909, 909, 906, 906, 898, 885, 885, 871, 871, 858, 858, 846, 836, 836, 827, 827, 820, 817, 817, 815, 814, 814, 814, 814, 813, 812, 812, 812, 811, 811, 811, 811, 810, 810, 811, 811, 811, 812, 812, 813, 813, 815, 816, 816, 818, 820, 820, 823, 824, 824, 826, 827, 827, 828, 828, 831, 834, 834, 836, 840, 840, 845, 851, 851, 858, 864, 864, 871, 877, 877, 882, 886, 886, 890, 891, 891, 892, 892, 892, 0, 0, 0, 0, 0, 0, 0, 0, 0, 0, 0, 0, 0, 0, 660, 660, 660, 660, 660, 660, 660, 660, 660, 660, 660, 660, 660, 660, 660, 661, 661, 661, 662, 662, 662, 662, 662, 662, 661, 661, 661, 660, 660, 660, 659, 659, 659, 658, 658, 658, 657, 657, 657, 657, 657, 657, 657, 656, 656, 656, 656, 656, 656, 657, 657, 657, 657, 658, 658, 658, 658, 658, 658, 658, 659, 659, 659, 660, 660, 660, 660, 659, 659, 659, 658, 658, 658, 658, 658, 658, 658, 658, 658, 658, 658, 658, 658, 658, 658, 658, 658, 659, 659, 659, 659, 659, 659, 660, 660, 660, 660, 660, 660, 660, 660, 661, 662, 662, 662, 662, 663, 664, 664, 664, 665, 665, 665, 665, 665, 665, 665, 664, 664, 663, 663, 662, 660, 660, 660, 659, 659, 659, 659, 658, 658, 658, 658, 658, 658, 658, 659, 660, 660, 660, 660, 660, 660, 660, 660, 660, 660, 660, 660, 659, 659, 659, 658, 658, 657, 657, 657, 656, 656, 655, 655, 655, 655, 655, 654, 653, 653, 653, 653, 653, 653, 653, 653, 653, 653, 652, 652, 653, 653, 653, 653, 653, 653, 653, 653, 653, 653, 653, 653, 653, 653, 653, 653, 653, 653, 653, 653, 653, 654, 654, 655, 655, 655, 655, 655, 655, 655, 655, 655, 655, 655, 655, 655, 654, 654, 654, 654, 654, 654, 653, 653, 653, 653, 653, 651, 651, 651, 651, 651, 651, 651, 651, 651, 651, 651, 651, 651, 651, 653, 653, 653, 654, 655, 655, 655, 655, 655, 655, 655, 655, 655, 655, 655, 655, 655, 655, 654, 653, 653, 653, 653, 652, 651, 651, 651, 650, 650, 650, 650, 649, 648, 648, 648, 647, 647, 647, 647, 647, 647, 647, 647, 647, 647, 647, 647, 647, 648, 649, 649, 649, 649, 649, 650, 651, 651, 651, 651, 651, 651, 651, 651, 651, 651, 651, 651, 651, 651, 651, 650, 650, 649, 649, 649, 649, 649, 648, 647, 647, 647, 647, 647, 647, 647, 647, 647, 647, 647, 648, 648, 648, 649, 649, 649, 649, 649, 649, 649, 649, 649, 649, 649, 649, 649, 649, 649, 649, 649, 649, 649, 649, 649, 649, 650, 650, 650, 650, 650, 650, 650, 650, 650, 650, 650, 650, 650, 651, 651, 651, 651, 651, 651, 651, 651, 651, 651, 651, 651, 651, 651, 651, 651, 651, 651, 651, 651, 651, 650, 650, 650, 650, 650, 650, 650, 649, 649, 649, 649, 649, 649, 649, 649, 649, 648, 648, 647, 647, 647, 647, 647, 646, 646, 646, 645, 645, 645, 644, 644, 643, 643, 643, 643, 643, 643, 642, 642, 642, 642, 876, 876, 875, 874, 874, 872, 872, 872, 869, 869, 866, 866, 865, 863, 863, 860, 859, 859, 857, 857, 855, 853, 853, 852, 850, 850, 847, 847, 845, 843, 843, 840, 840, 839, 837, 837, 835, 834, 834, 832, 832, 831, 830, 830, 829, 828, 828, 827, 827, 826, 825, 825, 823, 823, 821, 819, 819, 818, 816, 816, 814, 814, 812
919, 919, 920, 922, 922, 920, 920, 920, 920, 920, 919, 919, 919, 918, 918, 918, 916, 916, 916, 916, 915, 912, 912, 908, 907, 903, 889, 889, 875, 875, 863, 863, 0, 838, 838, 829, 829, 821, 818, 818, 817, 815, 815, 815, 815, 814, 814, 814, 813, 813, 813, 812, 812, 811, 811, 812, 812, 813, 814, 814, 815, 815, 816, 818, 818, 819, 821, 821, 823, 824, 824, 826, 827, 827, 828, 828, 830, 832, 832, 835, 839, 839, 844, 850, 850, 857, 864, 864, 871, 877, 877, 882, 886, 886, 890, 891, 891, 892, 892, 892, 0, 0, 0, 0, 0, 0, 0, 0, 0, 0, 0, 0, 0, 0, 662, 661, 661, 661, 661, 661, 661, 661, 660, 660, 661, 661, 661, 661, 662, 662, 662, 662, 662, 662, 663, 662, 662, 662, 662, 662, 662, 661, 660, 660, 660, 660, 659, 658, 658, 658, 658, 658, 658, 658, 657, 657, 657, 657, 657, 657, 657, 657, 657, 657, 658, 658, 658, 658, 658, 658, 658, 659, 659, 659, 660, 660, 660, 660, 660, 660, 660, 660, 660, 660, 659, 659, 659, 659, 659, 658, 658, 658, 658, 658, 658, 658, 658, 658, 658, 659, 659, 659, 659, 659, 659, 659, 659, 660, 660, 660, 660, 660, 660, 660, 660, 661, 662, 662, 662, 662, 663, 664, 664, 664, 665, 665, 665, 665, 665, 665, 665, 664, 664, 663, 663, 662, 660, 660, 660, 659, 659, 659, 659, 658, 658, 658, 658, 658, 658, 658, 659, 660, 660, 660, 660, 660, 660, 660, 660, 660, 660, 660, 660, 659, 659, 659, 658, 658, 657, 657, 657, 656, 656, 655, 655, 655, 655, 655, 654, 653, 653, 653, 653, 653, 653, 653, 653, 653, 653, 652, 652, 653, 653, 653, 653, 653, 653, 653, 653, 653, 653, 653, 653, 653, 653, 653, 653, 653, 653, 653, 653, 653, 654, 654, 655, 655, 655, 655, 655, 655, 655, 655, 655, 655, 655, 655, 655, 654, 654, 654, 654, 654, 654, 653, 653, 653, 653, 653, 653, 653, 653, 653, 653, 653, 653, 653, 653, 653, 653, 653, 653, 653, 653, 654, 654, 655, 655, 655, 656, 656, 656, 656, 656, 656, 656, 656, 656, 656, 655, 655, 655, 654, 654, 653, 653, 653, 652, 652, 651, 650, 650, 650, 650, 649, 648, 648, 648, 647, 647, 647, 647, 647, 647, 647, 647, 647, 647, 647, 648, 648, 649, 649, 649, 649, 650, 650, 651, 651, 651, 651, 651, 652, 652, 652, 652, 652, 652, 652, 652, 651, 651, 651, 651, 651, 650, 650, 649, 649, 649, 649, 648, 648, 648, 648, 648, 648, 648, 648, 648, 648, 648, 649, 649, 649, 649, 649, 650, 650, 650, 650, 650, 650, 650, 650, 650, 650, 649, 649, 649, 649, 650, 650, 650, 650, 650, 650, 650, 650, 650, 650, 650, 650, 650, 650, 650, 650, 650, 650, 650, 651, 651, 651, 651, 651, 651, 651, 651, 651, 651, 651, 651, 651, 651, 651, 651, 651, 651, 651, 651, 651, 650, 650, 650, 651, 651, 650, 650, 650, 650, 650, 650, 650, 650, 649, 649, 649, 649, 649, 649, 648, 648, 647, 647, 647, 647, 647, 646, 645, 645, 645, 645, 645, 643, 643, 643, 643, 643, 643, 643, 642, 642, 876, 876, 875, 874, 874, 872, 872, 870, 866, 866, 864, 864, 861, 860, 860, 858, 857, 857, 854, 854, 853, 851, 851, 850, 850, 847, 845, 845, 844, 842, 842, 839, 839, 837, 836, 836, 834, 832, 832, 831, 831, 830, 829, 829, 828, 827, 827, 826, 826, 825, 824, 824, 823, 823, 821, 819, 819, 817, 815, 815, 813, 813, 811
919, 919, 922, 922, 922, 922, 922, 922, 922, 922, 920, 920, 920, 919, 919, 919, 919, 919, 918, 918, 916, 914, 914, 911, 907, 907, 895, 895, 881, 881, 881, 0, 0, 844, 844, 834, 834, 826, 820, 820, 817, 817, 817, 816, 816, 816, 815, 815, 815, 814, 814, 813, 813, 813, 814, 814, 814, 814, 815, 815, 816, 818, 818, 819, 819, 820, 821, 821, 823, 824, 824, 826, 827, 827, 828, 828, 830, 832, 832, 835, 839, 839, 844, 850, 850, 857, 863, 863, 869, 876, 876, 881, 885, 885, 889, 891, 891, 892, 892, 892, 892, 892, 0, 0, 0, 0, 0, 0, 0, 0, 0, 0, 0, 0, 662, 661, 661, 661, 661, 661, 661, 661, 660, 660, 661, 661, 661, 661, 662, 662, 662, 662, 662, 662, 663, 662, 662, 662, 662, 662, 662, 661, 660, 660, 660, 660, 659, 658, 658, 658, 658, 658, 658, 658, 657, 657, 657, 657, 657, 657, 657, 657, 657, 657, 658, 658, 658, 658, 658, 658, 658, 659, 659, 659, 660, 660, 660, 660, 660, 660, 660, 660, 660, 660, 659, 659, 659, 659, 659, 658, 658, 658, 658, 658, 658, 658, 658, 658, 658, 658, 658, 658, 658, 658, 659, 659, 659, 660, 660, 660, 660, 660, 660, 661, 661, 662, 662, 662, 663, 663, 664, 664, 664, 665, 665, 665, 665, 665, 665, 665, 665, 664, 664, 663, 663, 662, 662, 662, 660, 660, 660, 660, 660, 660, 660, 660, 660, 660, 660, 660, 660, 661, 661, 662, 662, 662, 662, 662, 662, 662, 662, 662, 662, 661, 661, 660, 660, 660, 658, 658, 658, 657, 657, 656, 655, 655, 655, 655, 654, 654, 654, 654, 653, 653, 653, 653, 653, 653, 653, 653, 653, 653, 653, 653, 653, 653, 653, 653, 653, 653, 653, 653, 653, 653, 653, 653, 654, 654, 654, 654, 654, 654, 655, 655, 655, 656, 655, 655, 656, 656, 656, 657, 657, 657, 657, 656, 656, 656, 655, 655, 655, 656, 656, 655, 655, 655, 655, 655, 655, 655, 655, 654, 654, 653, 653, 653, 653, 654, 654, 654, 655, 655, 655, 655, 655, 656, 656, 656, 657, 657, 657, 657, 657, 657, 657, 657, 657, 656, 655, 655, 655, 655, 655, 653, 653, 653, 652, 652, 651, 650, 650, 650, 650, 649, 648, 648, 648, 648, 648, 647, 647, 647, 647, 648, 648, 648, 648, 648, 649, 649, 649, 649, 649, 650, 650, 650, 651, 651, 651, 652, 652, 652, 653, 653, 653, 653, 653, 653, 653, 652, 652, 651, 651, 651, 651, 651, 649, 649, 649, 649, 648, 648, 648, 648, 648, 648, 648, 648, 648, 648, 648, 649, 649, 649, 649, 649, 650, 650, 650, 650, 650, 650, 650, 650, 650, 650, 649, 649, 649, 649, 650, 650, 650, 650, 650, 650, 650, 650, 650, 650, 650, 650, 650, 650, 650, 650, 650, 650, 650, 650, 650, 650, 651, 651, 651, 651, 651, 651, 651, 651, 651, 651, 651, 651, 651, 651, 651, 651, 651, 651, 650, 650, 650, 651, 651, 650, 650, 650, 650, 650, 650, 650, 650, 649, 649, 649, 649, 649, 649, 648, 648, 647, 647, 647, 647, 647, 646, 645, 645, 645, 645, 645, 643, 643, 643, 643, 643, 643, 643, 642, 642, 872, 872, 871, 871, 870, 869, 869, 866, 863, 863, 860, 860, 859, 857, 857, 855, 854, 854, 852, 852, 851, 848, 848, 847, 847, 845, 844, 844, 842, 839, 839, 838, 838, 836, 835, 835, 832, 831, 831, 830, 830, 829, 828, 828, 827, 827, 827, 826, 826, 825, 824, 824, 823, 823, 821, 819, 819, 817, 815, 815, 813, 813, 810
919, 919, 920, 922, 922, 922, 922, 922, 922, 922, 920, 920, 920, 919, 919, 919, 919, 919, 918, 918, 916, 914, 914, 911, 907, 907, 895, 895, 881, 881, 881, 0, 0, 844, 844, 834, 834, 826, 820, 820, 817, 817, 817, 816, 816, 816, 815, 815, 815, 814, 814, 813, 813, 813, 814, 814, 814, 814, 815, 815, 816, 818, 818, 819, 819, 820, 821, 821, 823, 824, 824, 826, 827, 827, 828, 828, 830, 831, 831, 835, 837, 837, 843, 848, 848, 854, 861, 861, 867, 875, 875, 880, 885, 885, 889, 891, 891, 891, 891, 892, 892, 892, 0, 0, 0, 0, 0, 0, 0, 0, 0, 0, 0, 0, 0, 0, 0, 662, 662, 662, 662, 662, 662, 662, 662, 662, 662, 662, 662, 662, 662, 663, 663, 663, 663, 663, 662, 662, 662, 662, 662, 661, 660, 660, 660, 660, 659, 659, 659, 658, 658, 658, 658, 658, 658, 657, 657, 657, 658, 658, 658, 658, 658, 658, 658, 658, 658, 659, 659, 659, 659, 659, 660, 660, 660, 661, 661, 661, 661, 661, 661, 660, 660, 660, 660, 660, 660, 659, 659, 659, 658, 658, 658, 658, 658, 658, 658, 658, 658, 658, 658, 658, 658, 658, 659, 659, 659, 660, 660, 660, 660, 660, 660, 661, 661, 662, 662, 662, 663, 663, 664, 665, 665, 665, 665, 665, 665, 665, 665, 665, 665, 664, 664, 663, 663, 662, 662, 662, 661, 660, 660, 660, 660, 660, 660, 660, 660, 661, 661, 661, 662, 662, 662, 664, 664, 664, 664, 663, 663, 663, 663, 663, 662, 662, 662, 661, 660, 660, 659, 659, 658, 658, 658, 657, 656, 656, 655, 655, 655, 655, 655, 654, 653, 653, 653, 654, 653, 653, 653, 653, 653, 653, 653, 653, 653, 653, 653, 653, 653, 653, 653, 653, 653, 653, 653, 653, 654, 654, 654, 654, 654, 654, 655, 655, 655, 656, 655, 655, 656, 656, 656, 657, 657, 657, 657, 656, 656, 656, 655, 655, 655, 656, 656, 655, 655, 655, 655, 655, 655, 655, 655, 654, 654, 653, 653, 653, 653, 654, 654, 654, 655, 655, 655, 655, 655, 656, 656, 656, 657, 657, 657, 657, 657, 657, 657, 657, 657, 656, 655, 655, 655, 655, 655, 653, 653, 653, 652, 652, 651, 650, 650, 650, 650, 649, 648, 648, 648, 648, 648, 647, 647, 647, 647, 648, 648, 648, 648, 648, 649, 649, 649, 649, 649, 650, 650, 650, 651, 651, 651, 652, 652, 652, 653, 653, 653, 653, 653, 653, 653, 652, 652, 651, 651, 651, 651, 651, 650, 649, 649, 649, 649, 649, 648, 648, 648, 649, 649, 649, 649, 649, 649, 649, 650, 650, 650, 650, 651, 651, 651, 651, 651, 651, 651, 651, 651, 651, 650, 650, 650, 650, 651, 651, 651, 651, 651, 651, 651, 651, 651, 651, 650, 650, 650, 650, 650, 650, 650, 650, 650, 650, 650, 650, 650, 650, 651, 651, 651, 651, 651, 651, 651, 651, 651, 651, 651, 651, 651, 651, 651, 651, 651, 651, 651, 651, 651, 651, 651, 651, 651, 651, 651, 651, 651, 651, 651, 651, 650, 650, 650, 649, 649, 649, 649, 649, 649, 649, 648, 647, 647, 646, 646, 645, 645, 645, 644, 644, 644, 643, 643, 642, 642, 872, 872, 871, 871, 870, 869, 869, 866, 863, 863, 860, 860, 859, 857, 857, 855, 854, 854, 852, 852, 851, 848, 848, 847, 847, 845, 844, 844, 842, 839, 839, 838, 838, 836, 835, 835, 832, 831, 831, 830, 830, 829, 828, 828, 827, 827, 827, 826, 826, 825, 824, 824, 823, 823, 821, 820, 820, 818, 815, 815, 813, 813, 810
918, 918, 920, 922, 922, 922, 923, 923, 923, 923, 922, 922, 922, 922, 922, 920, 920, 920, 919, 919, 919, 916, 916, 914, 909, 909, 899, 899, 891, 891, 877, 864, 864, 848, 848, 837, 830, 829, 823, 823, 819, 817, 817, 817, 817, 817, 816, 816, 816, 816, 816, 815, 815, 815, 815, 815, 815, 815, 816, 816, 817, 819, 819, 820, 820, 821, 823, 823, 824, 825, 825, 826, 827, 827, 828, 828, 830, 831, 831, 835, 837, 837, 843, 848, 848, 854, 861, 861, 867, 875, 875, 880, 885, 885, 889, 891, 891, 891, 891, 892, 892, 892, 0, 0, 0, 0, 0, 0, 0, 0, 0, 0, 0, 0, 0, 0, 0, 662, 662, 662, 662, 662, 662, 662, 663, 663, 663, 663, 663, 663, 663, 664, 664, 664, 664, 664, 663, 663, 663, 662, 662, 661, 660, 660, 660, 660, 660, 659, 659, 658, 658, 658, 658, 658, 658, 658, 658, 658, 658, 658, 658, 658, 658, 658, 659, 659, 659, 660, 660, 660, 660, 660, 661, 661, 661, 661, 661, 661, 661, 661, 661, 660, 660, 660, 660, 660, 660, 659, 659, 659, 658, 658, 658, 658, 658, 658, 658, 658, 658, 658, 658, 658, 658, 658, 659, 659, 659, 659, 659, 659, 660, 660, 660, 661, 661, 662, 662, 662, 663, 663, 664, 665, 665, 665, 665, 665, 665, 665, 665, 665, 665, 664, 664, 663, 663, 662, 662, 662, 661, 660, 660, 660, 660, 660, 660, 660, 660, 661, 661, 661, 662, 662, 662, 664, 664, 664, 664, 663, 663, 663, 663, 663, 662, 662, 662, 661, 660, 660, 659, 659, 658, 658, 658, 657, 656, 656, 655, 655, 655, 655, 655, 654, 653, 653, 653, 654, 653, 653, 653, 653, 653, 653, 653, 653, 653, 653, 653, 653, 653, 653, 653, 653, 653, 653, 654, 654, 654, 654, 654, 655, 655, 655, 655, 655, 656, 657, 657, 657, 658, 658, 658, 658, 658, 658, 658, 658, 658, 658, 658, 658, 658, 658, 658, 657, 657, 657, 656, 656, 656, 656, 655, 655, 655, 655, 655, 655, 655, 655, 655, 655, 656, 656, 656, 656, 656, 657, 658, 658, 658, 658, 658, 658, 658, 658, 658, 657, 657, 657, 656, 656, 655, 655, 655, 654, 654, 653, 652, 652, 651, 650, 650, 650, 650, 649, 649, 649, 648, 648, 648, 648, 648, 648, 648, 649, 649, 649, 649, 649, 649, 649, 649, 650, 650, 651, 651, 651, 652, 652, 652, 653, 653, 653, 653, 653, 653, 653, 653, 653, 653, 652, 652, 652, 651, 651, 651, 651, 650, 650, 650, 649, 649, 649, 649, 649, 649, 649, 649, 649, 649, 649, 649, 650, 650, 650, 651, 651, 651, 651, 651, 651, 651, 651, 651, 651, 651, 651, 651, 651, 651, 651, 651, 651, 651, 651, 651, 651, 651, 651, 651, 651, 650, 650, 650, 650, 650, 650, 650, 650, 650, 650, 650, 650, 650, 650, 651, 651, 651, 651, 651, 651, 651, 651, 651, 651, 651, 651, 651, 651, 651, 651, 651, 651, 651, 651, 652, 651, 651, 651, 651, 651, 651, 651, 651, 651, 651, 651, 650, 650, 650, 649, 649, 649, 649, 649, 649, 649, 648, 647, 647, 646, 646, 645, 645, 645, 644, 644, 644, 643, 643, 642, 642, 869, 869, 869, 869, 866, 865, 865, 863, 859, 859, 858, 858, 855, 854, 854, 853, 851, 851, 850, 850, 848, 846, 846, 845, 845, 844, 842, 842, 839, 838, 838, 836, 836, 835, 834, 834, 832, 831, 831, 830, 830, 829, 828, 828, 827, 826, 826, 826, 826, 825, 824, 824, 823, 823, 821, 819, 819, 817, 814, 814, 811, 811, 808
918, 918, 920, 922, 922, 923, 923, 923, 923, 924, 923, 923, 923, 923, 923, 923, 922, 922, 922, 922, 920, 919, 919, 916, 914, 914, 904, 904, 891, 891, 877, 864, 864, 864, 0, 842, 830, 830, 825, 825, 821, 819, 819, 819, 819, 818, 818, 818, 816, 816, 816, 815, 815, 815, 815, 815, 815, 815, 816, 816, 817, 819, 819, 820, 820, 821, 823, 823, 824, 825, 825, 826, 827, 827, 828, 828, 830, 831, 831, 834, 837, 837, 842, 847, 847, 854, 860, 860, 867, 874, 874, 880, 885, 885, 889, 891, 891, 891, 891, 892, 892, 892, 892, 0, 0, 0, 0, 0, 0, 0, 0, 0, 0, 0, 0, 0, 0, 662, 662, 662, 662, 662, 662, 662, 663, 663, 663, 663, 663, 663, 663, 664, 664, 664, 664, 664, 663, 663, 663, 662, 662, 661, 660, 660, 660, 660, 660, 659, 659, 658, 658, 658, 658, 658, 658, 658, 658, 658, 658, 658, 658, 658, 658, 658, 659, 659, 659, 660, 660, 660, 660, 660, 661, 661, 661, 662, 662, 662, 662, 662, 662, 661, 661, 661, 660, 660, 660, 660, 660, 659, 658, 658, 658, 658, 658, 658, 658, 658, 658, 658, 658, 658, 658, 658, 658, 658, 658, 659, 659, 659, 660, 660, 660, 660, 660, 662, 662, 662, 663, 663, 663, 665, 665, 665, 665, 665, 665, 665, 665, 665, 664, 663, 663, 663, 663, 662, 662, 662, 661, 661, 661, 661, 661, 661, 661, 661, 661, 662, 662, 662, 663, 664, 664, 665, 665, 665, 665, 665, 665, 665, 664, 664, 663, 662, 662, 661, 661, 661, 660, 660, 659, 658, 658, 658, 656, 656, 655, 655, 655, 655, 655, 654, 653, 653, 653, 654, 653, 653, 653, 653, 653, 654, 654, 654, 654, 654, 654, 654, 654, 654, 654, 654, 654, 654, 654, 654, 655, 655, 655, 655, 655, 655, 656, 657, 657, 658, 658, 658, 658, 658, 658, 659, 659, 659, 659, 659, 659, 659, 659, 659, 658, 658, 658, 658, 658, 658, 658, 658, 658, 658, 657, 657, 657, 657, 657, 657, 657, 657, 657, 657, 657, 657, 658, 658, 658, 658, 658, 658, 659, 659, 658, 658, 658, 658, 658, 658, 658, 657, 657, 657, 655, 655, 655, 654, 654, 653, 653, 653, 651, 651, 651, 650, 650, 649, 649, 649, 649, 648, 648, 648, 648, 648, 648, 649, 649, 649, 649, 649, 649, 649, 649, 650, 650, 651, 651, 651, 652, 652, 652, 653, 653, 653, 653, 653, 653, 653, 653, 653, 653, 652, 652, 652, 651, 651, 651, 651, 650, 650, 650, 649, 649, 649, 649, 649, 649, 649, 649, 649, 649, 649, 649, 650, 650, 650, 651, 651, 651, 651, 651, 651, 651, 651, 651, 651, 651, 651, 651, 651, 651, 651, 651, 651, 651, 651, 651, 651, 651, 651, 651, 651, 650, 650, 650, 650, 650, 650, 650, 650, 650, 650, 650, 650, 650, 650, 650, 650, 650, 650, 650, 650, 650, 650, 651, 651, 651, 651, 651, 651, 651, 651, 651, 651, 651, 651, 652, 651, 651, 651, 651, 651, 651, 651, 651, 651, 651, 651, 651, 651, 651, 651, 651, 651, 651, 650, 650, 650, 649, 649, 649, 648, 648, 647, 646, 646, 645, 645, 645, 645, 645, 644, 644, 865, 865, 864, 864, 863, 861, 861, 860, 857, 857, 855, 855, 853, 852, 852, 851, 851, 850, 847, 847, 846, 845, 845, 843, 843, 842, 840, 840, 838, 837, 837, 836, 836, 834, 832, 832, 831, 830, 830, 829, 829, 829, 828, 828, 827, 826, 826, 826, 826, 825, 824, 824, 823, 823, 820, 819, 819, 817, 814, 814, 811, 811, 808
916, 916, 919, 920, 920, 922, 922, 922, 923, 924, 923, 923, 923, 923, 923, 923, 922, 922, 922, 922, 920, 919, 919, 916, 914, 914, 904, 904, 891, 891, 877, 864, 864, 855, 855, 842, 830, 830, 825, 825, 821, 819, 819, 819, 819, 818, 818, 818, 817, 817, 817, 816, 816, 816, 816, 817, 817, 817, 818, 818, 818, 819, 819, 820, 820, 821, 823, 823, 824, 825, 825, 826, 827, 827, 828, 828, 830, 831, 831, 834, 836, 836, 840, 846, 846, 853, 859, 859, 866, 874, 874, 879, 885, 885, 889, 891, 891, 891, 891, 892, 892, 892, 892, 0, 0, 0, 0, 0, 0, 0, 0, 0, 0, 0, 0, 0, 0, 663, 663, 663, 663, 663, 663, 663, 664, 664, 664, 664, 664, 664, 664, 664, 665, 664, 664, 664, 663, 663, 663, 662, 662, 662, 661, 661, 660, 660, 660, 659, 659, 659, 658, 658, 658, 658, 658, 658, 658, 658, 658, 658, 658, 659, 659, 659, 660, 660, 660, 660, 660, 660, 661, 661, 662, 662, 662, 662, 662, 662, 662, 662, 662, 662, 661, 661, 661, 660, 660, 660, 660, 659, 659, 659, 658, 658, 658, 658, 658, 658, 658, 658, 658, 658, 658, 658, 658, 658, 658, 659, 659, 659, 660, 660, 660, 660, 660, 662, 662, 662, 663, 663, 663, 665, 665, 665, 665, 665, 665, 665, 665, 665, 664, 663, 663, 663, 663, 662, 662, 662, 661, 661, 661, 661, 662, 662, 662, 662, 662, 662, 663, 663, 664, 665, 665, 665, 665, 665, 665, 665, 665, 665, 665, 664, 663, 662, 662, 661, 661, 661, 660, 660, 659, 658, 658, 658, 656, 656, 655, 655, 655, 655, 655, 654, 653, 653, 653, 654, 653, 653, 653, 653, 653, 654, 654, 654, 654, 654, 654, 654, 654, 654, 654, 654, 654, 654, 654, 654, 655, 655, 655, 655, 655, 655, 656, 657, 657, 658, 658, 658, 658, 658, 658, 659, 659, 659, 659, 659, 659, 659, 659, 659, 658, 658, 658, 658, 658, 658, 658, 658, 658, 658, 657, 657, 657, 657, 657, 657, 657, 657, 657, 657, 657, 657, 658, 658, 658, 658, 658, 658, 659, 659, 658, 658, 658, 658, 658, 658, 658, 657, 657, 657, 655, 655, 655, 654, 654, 653, 653, 653, 651, 651, 651, 650, 650, 649, 649, 649, 649, 648, 648, 648, 648, 648, 648, 649, 649, 649, 649, 649, 650, 651, 651, 651, 651, 651, 653, 653, 653, 653, 653, 653, 653, 653, 654, 654, 653, 653, 653, 653, 653, 653, 653, 652, 652, 652, 651, 651, 651, 650, 650, 649, 649, 649, 649, 649, 649, 649, 649, 649, 649, 649, 649, 650, 650, 650, 651, 651, 651, 651, 651, 651, 651, 651, 651, 651, 651, 651, 651, 651, 651, 651, 651, 651, 651, 651, 651, 651, 651, 651, 651, 651, 651, 651, 650, 650, 650, 650, 650, 650, 650, 650, 650, 650, 650, 650, 650, 650, 650, 650, 650, 650, 650, 650, 651, 651, 651, 651, 651, 651, 651, 651, 651, 651, 651, 652, 652, 652, 652, 652, 652, 652, 652, 652, 653, 653, 653, 652, 652, 652, 652, 652, 652, 652, 652, 651, 651, 651, 651, 650, 650, 650, 650, 649, 647, 647, 647, 647, 647, 647, 647, 647, 866, 865, 865, 864, 864, 863, 861, 861, 860, 857, 857, 855, 855, 853, 852, 852, 851, 851, 850, 847, 847, 846, 845, 845, 843, 843, 842, 840, 840, 838, 837, 837, 836, 836, 834, 832, 832, 831, 830, 830, 829, 829, 829, 828, 828, 827, 826, 826, 826, 826, 825, 824, 824, 823, 823, 820, 818, 818, 816, 813, 813, 809, 809, 805
915, 915, 918, 920, 920, 920, 922, 922, 923, 924, 924, 924, 924, 923, 923, 923, 923, 923, 923, 923, 922, 922, 922, 919, 918, 918, 908, 908, 896, 896, 0, 869, 869, 855, 855, 844, 834, 834, 826, 826, 824, 820, 820, 820, 820, 819, 819, 819, 819, 818, 818, 818, 818, 818, 818, 818, 818, 818, 819, 819, 819, 820, 820, 821, 821, 823, 823, 823, 824, 825, 825, 826, 827, 827, 828, 828, 830, 831, 831, 834, 836, 836, 840, 846, 846, 853, 859, 859, 866, 874, 874, 879, 885, 885, 889, 891, 891, 892, 892, 892, 892, 892, 892, 0, 0, 0, 0, 0, 0, 0, 0, 0, 0, 0, 0, 0, 0, 664, 664, 664, 664, 664, 664, 664, 664, 664, 665, 665, 665, 665, 665, 665, 665, 665, 665, 665, 664, 664, 663, 662, 662, 662, 661, 661, 660, 660, 660, 659, 659, 659, 658, 658, 658, 658, 658, 658, 658, 658, 658, 658, 658, 659, 659, 659, 660, 660, 660, 660, 660, 660, 661, 661, 662, 662, 662, 662, 662, 662, 662, 662, 662, 662, 661, 661, 661, 660, 660, 660, 660, 659, 659, 659, 658, 658, 658, 658, 658, 658, 658, 658, 658, 658, 658, 658, 658, 658, 658, 658, 658, 658, 659, 659, 660, 660, 660, 661, 662, 662, 662, 662, 663, 664, 664, 665, 665, 665, 665, 664, 663, 663, 663, 662, 662, 662, 662, 662, 662, 662, 661, 661, 661, 661, 662, 662, 662, 662, 662, 662, 663, 663, 664, 665, 665, 665, 665, 665, 665, 665, 665, 665, 665, 663, 663, 662, 662, 662, 661, 661, 660, 660, 659, 658, 658, 658, 657, 657, 656, 656, 655, 655, 655, 654, 654, 654, 654, 654, 654, 654, 654, 654, 654, 654, 654, 654, 654, 654, 655, 655, 655, 655, 655, 655, 655, 655, 655, 655, 655, 655, 655, 655, 656, 656, 657, 658, 658, 658, 658, 658, 659, 659, 660, 660, 660, 660, 660, 660, 660, 660, 660, 660, 659, 659, 659, 659, 659, 659, 659, 659, 658, 658, 658, 658, 658, 658, 658, 658, 658, 658, 658, 658, 658, 658, 659, 659, 659, 660, 660, 660, 660, 660, 659, 659, 659, 658, 658, 658, 658, 657, 657, 657, 656, 655, 655, 654, 654, 653, 653, 653, 651, 651, 651, 650, 650, 650, 649, 649, 649, 649, 649, 649, 649, 649, 649, 649, 649, 649, 650, 650, 651, 651, 651, 652, 652, 652, 653, 653, 653, 653, 653, 654, 654, 655, 655, 654, 654, 654, 653, 653, 653, 653, 653, 653, 652, 652, 651, 651, 651, 650, 650, 649, 649, 649, 649, 649, 649, 649, 649, 649, 649, 649, 649, 650, 651, 651, 651, 651, 651, 652, 652, 652, 652, 652, 652, 652, 652, 652, 652, 652, 652, 652, 652, 652, 652, 652, 652, 652, 652, 651, 651, 651, 651, 651, 651, 650, 650, 650, 650, 650, 650, 650, 650, 650, 650, 650, 650, 650, 650, 650, 650, 650, 650, 650, 651, 651, 651, 651, 651, 651, 651, 651, 651, 651, 651, 652, 652, 652, 652, 652, 652, 652, 652, 652, 653, 653, 653, 652, 652, 652, 652, 652, 652, 652, 652, 651, 651, 651, 651, 650, 650, 650, 650, 649, 647, 647, 647, 647, 647, 647, 647, 647, 863, 861, 861, 860, 860, 859, 859, 859, 857, 854, 854, 852, 852, 851, 850, 850, 848, 848, 847, 846, 846, 844, 843, 843, 842, 842, 840, 838, 838, 837, 836, 836, 835, 835, 834, 832, 832, 831, 830, 830, 829, 829, 828, 827, 827, 827, 826, 826, 826, 826, 825, 823, 823, 821, 821, 818, 816, 816, 813, 810, 810, 806, 806, 802
915, 915, 918, 920, 920, 920, 922, 922, 923, 924, 924, 924, 924, 923, 923, 923, 923, 923, 923, 923, 922, 922, 922, 919, 918, 918, 908, 908, 896, 887, 887, 869, 869, 855, 855, 844, 834, 834, 826, 826, 824, 820, 820, 820, 820, 819, 819, 819, 819, 818, 818, 818, 818, 818, 818, 818, 818, 818, 819, 819, 819, 820, 820, 821, 821, 823, 823, 823, 824, 825, 825, 826, 827, 827, 828, 828, 830, 831, 831, 834, 836, 836, 840, 846, 846, 852, 859, 859, 866, 872, 872, 879, 885, 885, 889, 891, 891, 892, 892, 892, 892, 892, 892, 0, 0, 0, 0, 0, 0, 0, 0, 0, 0, 0, 0, 0, 0, 664, 664, 664, 664, 664, 664, 664, 664, 664, 665, 665, 665, 665, 665, 665, 665, 665, 665, 665, 664, 664, 663, 662, 662, 662, 661, 661, 660, 660, 660, 660, 660, 659, 659, 659, 659, 659, 659, 659, 659, 659, 659, 659, 659, 659, 659, 660, 660, 660, 660, 661, 661, 662, 662, 662, 662, 662, 662, 663, 663, 662, 662, 662, 662, 662, 662, 662, 661, 660, 660, 660, 660, 660, 659, 659, 658, 658, 658, 658, 658, 658, 658, 658, 658, 658, 658, 658, 658, 658, 658, 658, 658, 658, 659, 659, 660, 660, 660, 661, 662, 662, 662, 662, 663, 664, 664, 664, 664, 664, 665, 664, 663, 663, 663, 662, 662, 662, 662, 662, 662, 662, 661, 661, 662, 662, 662, 662, 662, 662, 662, 663, 664, 664, 665, 666, 666, 666, 666, 666, 666, 665, 665, 665, 665, 663, 663, 662, 662, 662, 661, 661, 660, 660, 660, 658, 658, 658, 657, 657, 657, 657, 656, 655, 655, 655, 655, 655, 655, 655, 654, 654, 654, 654, 654, 655, 655, 655, 655, 655, 655, 655, 655, 655, 655, 655, 655, 655, 655, 655, 655, 655, 655, 655, 656, 656, 657, 658, 658, 658, 658, 658, 659, 659, 660, 660, 660, 660, 660, 660, 660, 660, 660, 660, 660, 660, 660, 660, 660, 659, 659, 660, 659, 659, 659, 658, 658, 658, 658, 658, 658, 658, 659, 658, 658, 658, 659, 659, 659, 660, 660, 660, 660, 660, 659, 659, 659, 658, 658, 658, 658, 657, 657, 657, 655, 655, 655, 654, 654, 653, 653, 653, 651, 651, 651, 650, 650, 650, 649, 649, 649, 649, 649, 649, 649, 649, 649, 649, 649, 649, 650, 650, 651, 651, 651, 652, 652, 652, 653, 653, 653, 653, 653, 654, 654, 655, 655, 654, 654, 654, 653, 653, 653, 653, 653, 653, 652, 652, 651, 651, 651, 650, 650, 649, 649, 649, 649, 649, 649, 649, 649, 649, 649, 649, 649, 650, 651, 651, 651, 651, 651, 652, 652, 652, 652, 652, 652, 652, 652, 652, 652, 652, 652, 652, 652, 652, 652, 652, 652, 652, 652, 651, 651, 651, 651, 651, 651, 651, 651, 651, 650, 650, 650, 650, 650, 650, 650, 650, 650, 650, 650, 650, 650, 650, 650, 650, 651, 651, 651, 651, 651, 651, 651, 651, 651, 651, 651, 652, 652, 652, 653, 653, 653, 653, 653, 653, 653, 653, 653, 653, 653, 653, 652, 652, 653, 652, 652, 652, 652, 652, 652, 651, 651, 651, 651, 649, 649, 649, 648, 648, 648, 647, 647, 647, 859, 858, 858, 857, 857, 857, 855, 855, 854, 854, 851, 850, 850, 848, 847, 847, 846, 846, 846, 846, 846, 844, 843, 843, 842, 842, 840, 838, 838, 837, 836, 836, 835, 835, 834, 832, 832, 831, 830, 830, 829, 829, 828, 827, 827, 827, 826, 826, 826, 826, 825, 823, 823, 821, 821, 818, 816, 816, 813, 810, 810, 806, 806, 802
915, 915, 916, 919, 919, 920, 922, 922, 923, 924, 924, 924, 924, 926, 926, 924, 924, 926, 924, 924, 924, 923, 923, 922, 920, 920, 912, 912, 903, 887, 887, 874, 874, 866, 866, 0, 837, 837, 828, 828, 825, 823, 823, 821, 821, 820, 820, 820, 819, 819, 819, 819, 819, 819, 819, 819, 819, 819, 820, 820, 820, 821, 821, 821, 821, 823, 824, 824, 825, 825, 825, 826, 827, 827, 828, 828, 830, 831, 831, 834, 836, 836, 840, 846, 846, 852, 859, 859, 866, 872, 872, 879, 885, 885, 889, 891, 891, 892, 892, 894, 894, 894, 894, 0, 0, 0, 0, 0, 0, 0, 0, 0, 0, 0, 0, 0, 0, 665, 665, 665, 665, 665, 665, 665, 665, 665, 665, 665, 665, 665, 665, 665, 665, 665, 665, 665, 664, 664, 664, 663, 663, 662, 662, 662, 661, 661, 660, 660, 660, 660, 660, 660, 660, 660, 660, 660, 660, 660, 660, 660, 660, 660, 660, 660, 660, 660, 661, 662, 662, 662, 662, 662, 662, 662, 663, 663, 663, 663, 663, 663, 663, 662, 662, 662, 661, 661, 661, 660, 660, 660, 659, 659, 659, 658, 658, 658, 658, 658, 658, 658, 658, 658, 658, 658, 658, 658, 658, 659, 658, 658, 659, 659, 660, 660, 660, 661, 662, 662, 662, 662, 663, 664, 664, 664, 664, 664, 664, 664, 662, 662, 662, 662, 662, 662, 662, 662, 662, 662, 661, 661, 661, 661, 661, 662, 662, 662, 662, 663, 664, 664, 665, 666, 666, 666, 666, 666, 666, 665, 665, 665, 665, 663, 663, 662, 662, 662, 661, 661, 660, 660, 660, 658, 658, 658, 657, 657, 657, 657, 656, 655, 655, 655, 655, 655, 655, 655, 654, 654, 654, 654, 654, 655, 655, 655, 655, 655, 655, 655, 655, 655, 655, 655, 655, 655, 655, 655, 655, 655, 655, 655, 656, 656, 657, 658, 658, 658, 658, 658, 659, 659, 660, 660, 660, 660, 660, 660, 660, 660, 660, 660, 660, 660, 660, 660, 660, 659, 659, 660, 659, 659, 659, 658, 658, 658, 658, 658, 658, 658, 659, 659, 660, 660, 660, 660, 660, 660, 660, 660, 660, 660, 660, 660, 659, 658, 658, 658, 658, 657, 656, 656, 655, 655, 655, 655, 655, 654, 653, 653, 652, 651, 651, 651, 651, 650, 649, 649, 649, 649, 649, 649, 649, 649, 649, 650, 650, 650, 651, 651, 651, 652, 652, 653, 653, 653, 653, 653, 654, 654, 654, 655, 655, 655, 655, 655, 655, 655, 654, 654, 654, 653, 653, 653, 653, 653, 651, 651, 651, 651, 651, 650, 649, 649, 649, 649, 649, 649, 649, 649, 649, 650, 650, 650, 651, 651, 651, 651, 651, 652, 652, 652, 652, 652, 652, 652, 652, 652, 652, 652, 652, 652, 652, 652, 652, 652, 652, 652, 652, 652, 652, 652, 652, 652, 651, 651, 651, 651, 650, 650, 650, 650, 650, 650, 650, 650, 650, 650, 650, 650, 650, 651, 651, 651, 651, 651, 651, 651, 651, 651, 651, 651, 651, 651, 651, 653, 653, 653, 653, 653, 653, 653, 653, 653, 653, 653, 653, 653, 653, 653, 653, 653, 653, 653, 653, 653, 652, 652, 652, 651, 651, 651, 651, 650, 649, 649, 649, 649, 649, 649, 649, 649, 859, 858, 858, 857, 857, 857, 855, 855, 854, 854, 851, 850, 850, 848, 847, 847, 846, 846, 845, 844, 844, 843, 842, 842, 839, 839, 838, 837, 837, 836, 835, 835, 834, 834, 832, 831, 831, 830, 830, 830, 829, 829, 828, 827, 827, 826, 826, 826, 825, 825, 823, 821, 821, 818, 818, 816, 813, 813, 810, 806, 806, 802, 802, 798
915, 915, 916, 919, 919, 920, 922, 922, 923, 924, 924, 924, 924, 926, 926, 926, 926, 926, 926, 924, 924, 924, 924, 924, 922, 922, 916, 916, 907, 892, 892, 892, 0, 866, 866, 0, 842, 842, 832, 832, 826, 824, 824, 823, 823, 821, 821, 821, 820, 820, 820, 820, 820, 820, 820, 820, 820, 820, 820, 820, 821, 821, 821, 823, 823, 823, 824, 824, 825, 826, 826, 827, 828, 828, 829, 829, 831, 832, 832, 834, 836, 836, 840, 846, 846, 852, 859, 859, 866, 874, 874, 880, 885, 885, 890, 892, 892, 892, 892, 894, 894, 894, 894, 0, 0, 0, 0, 0, 0, 0, 0, 0, 0, 0, 0, 0, 0, 665, 665, 665, 665, 665, 665, 665, 665, 665, 665, 665, 665, 665, 665, 665, 665, 665, 665, 665, 664, 664, 663, 662, 662, 662, 662, 662, 661, 661, 660, 660, 660, 660, 660, 660, 660, 660, 660, 660, 660, 660, 660, 660, 660, 660, 660, 660, 660, 660, 661, 662, 662, 662, 662, 662, 662, 662, 663, 663, 663, 663, 663, 663, 663, 662, 662, 662, 661, 661, 661, 660, 660, 660, 659, 659, 659, 658, 658, 658, 658, 658, 658, 658, 658, 658, 658, 658, 658, 658, 658, 658, 658, 658, 659, 659, 660, 660, 660, 661, 662, 662, 662, 662, 662, 663, 663, 663, 663, 663, 663, 663, 662, 662, 662, 662, 662, 662, 662, 662, 661, 661, 661, 661, 661, 661, 661, 662, 662, 662, 662, 664, 664, 664, 665, 666, 666, 667, 667, 666, 666, 666, 665, 665, 665, 663, 663, 662, 662, 662, 661, 661, 660, 660, 660, 658, 658, 658, 658, 658, 657, 657, 656, 655, 655, 655, 655, 655, 655, 655, 655, 654, 654, 654, 655, 655, 655, 655, 655, 655, 655, 655, 655, 655, 655, 655, 655, 655, 655, 655, 655, 655, 655, 655, 656, 656, 657, 658, 658, 658, 658, 659, 659, 659, 660, 660, 660, 660, 660, 660, 660, 660, 660, 660, 660, 660, 660, 660, 660, 660, 660, 660, 660, 660, 660, 660, 660, 660, 660, 660, 660, 660, 660, 660, 660, 660, 661, 661, 661, 661, 662, 661, 661, 661, 660, 660, 660, 659, 659, 658, 658, 657, 656, 656, 656, 655, 655, 655, 655, 654, 653, 653, 652, 651, 651, 651, 651, 650, 650, 650, 649, 649, 649, 649, 650, 650, 650, 651, 651, 651, 651, 651, 652, 653, 653, 653, 653, 653, 654, 654, 655, 655, 655, 655, 655, 655, 655, 655, 655, 655, 654, 654, 654, 654, 654, 653, 653, 653, 652, 651, 651, 651, 651, 650, 650, 650, 649, 649, 649, 649, 649, 649, 649, 650, 650, 650, 651, 651, 651, 651, 651, 652, 652, 652, 652, 652, 652, 652, 652, 652, 652, 652, 652, 652, 652, 652, 652, 652, 652, 652, 652, 652, 652, 652, 652, 652, 651, 651, 651, 651, 650, 650, 650, 650, 650, 650, 650, 650, 650, 650, 650, 650, 650, 651, 651, 651, 651, 651, 651, 651, 651, 651, 651, 651, 651, 651, 651, 653, 653, 653, 653, 653, 653, 653, 653, 653, 653, 653, 653, 653, 653, 653, 653, 653, 653, 653, 653, 653, 652, 652, 652, 651, 651, 651, 651, 650, 649, 649, 649, 649, 649, 649, 649, 649, 857, 857, 854, 854, 854, 853, 852, 852, 851, 851, 850, 848, 848, 847, 846, 846, 845, 845, 844, 842, 842, 840, 839, 839, 838, 838, 837, 836, 836, 835, 834, 834, 832, 832, 831, 831, 831, 830, 829, 829, 828, 828, 827, 827, 827, 826, 825, 825, 823, 823, 821, 819, 819, 816, 816, 813, 810, 810, 805, 805, 802, 798, 798, 795
914, 914, 916, 918, 918, 920, 922, 922, 923, 924, 924, 924, 924, 926, 926, 926, 926, 926, 926, 924, 924, 924, 924, 924, 922, 922, 916, 916, 907, 892, 892, 892, 0, 866, 866, 858, 842, 842, 832, 832, 826, 824, 824, 823, 823, 821, 821, 821, 820, 820, 820, 820, 820, 820, 820, 820, 820, 820, 820, 820, 821, 821, 821, 823, 823, 823, 824, 824, 825, 826, 826, 827, 828, 828, 829, 829, 831, 832, 832, 834, 836, 836, 840, 846, 846, 852, 859, 859, 866, 874, 874, 880, 885, 885, 890, 892, 892, 894, 894, 895, 895, 895, 895, 0, 0, 0, 0, 0, 0, 0, 0, 0, 0, 0, 0, 0, 0, 666, 666, 665, 665, 665, 665, 666, 666, 666, 665, 665, 665, 665, 665, 665, 665, 665, 665, 665, 664, 664, 663, 662, 662, 662, 662, 662, 661, 661, 660, 660, 660, 660, 660, 660, 660, 660, 660, 660, 660, 660, 660, 660, 660, 660, 660, 660, 661, 661, 662, 662, 662, 662, 662, 662, 663, 663, 663, 664, 664, 664, 664, 663, 663, 662, 662, 662, 662, 662, 662, 660, 660, 660, 659, 659, 659, 658, 658, 658, 658, 658, 658, 658, 658, 658, 658, 658, 658, 658, 658, 658, 658, 658, 659, 659, 660, 660, 660, 661, 662, 662, 662, 662, 662, 663, 663, 663, 663, 663, 663, 663, 663, 663, 662, 662, 662, 662, 662, 662, 661, 661, 661, 662, 662, 662, 662, 662, 662, 662, 662, 664, 664, 664, 665, 666, 666, 667, 667, 666, 666, 666, 665, 665, 665, 663, 663, 662, 662, 662, 661, 661, 660, 660, 660, 659, 659, 659, 658, 658, 658, 657, 657, 656, 656, 656, 656, 656, 655, 655, 655, 655, 655, 655, 655, 655, 655, 655, 655, 655, 655, 655, 655, 655, 655, 655, 655, 655, 655, 655, 655, 655, 655, 655, 656, 656, 657, 658, 658, 658, 658, 659, 659, 659, 660, 660, 660, 660, 660, 660, 660, 660, 660, 660, 660, 660, 660, 660, 660, 660, 660, 660, 660, 660, 660, 660, 660, 660, 660, 660, 660, 660, 660, 660, 660, 660, 661, 661, 661, 661, 662, 661, 661, 661, 660, 660, 660, 659, 659, 658, 658, 657, 656, 656, 656, 655, 655, 655, 655, 654, 653, 653, 652, 651, 651, 651, 651, 650, 650, 650, 649, 649, 649, 649, 650, 650, 650, 651, 651, 651, 651, 651, 652, 653, 653, 653, 653, 653, 654, 654, 655, 655, 655, 655, 655, 655, 655, 655, 655, 655, 654, 654, 654, 654, 654, 653, 653, 653, 652, 651, 651, 651, 651, 650, 650, 650, 649, 649, 649, 649, 649, 649, 650, 650, 650, 651, 651, 651, 651, 651, 652, 652, 652, 653, 653, 653, 653, 653, 652, 652, 652, 653, 653, 653, 653, 653, 653, 653, 653, 653, 653, 653, 653, 653, 652, 652, 652, 651, 651, 651, 651, 651, 651, 651, 650, 650, 650, 650, 650, 650, 650, 650, 650, 651, 651, 651, 651, 651, 651, 651, 652, 651, 651, 651, 652, 653, 653, 653, 653, 653, 653, 653, 653, 653, 653, 653, 653, 653, 653, 653, 653, 653, 653, 653, 653, 653, 653, 653, 653, 653, 652, 652, 652, 652, 652, 651, 651, 651, 651, 650, 650, 650, 650, 0, 857, 857, 854, 854, 854, 853, 852, 852, 851, 851, 850, 848, 848, 847, 846, 846, 845, 845, 844, 842, 842, 840, 839, 839, 838, 838, 837, 836, 836, 835, 834, 834, 832, 832, 831, 831, 831, 830, 829, 829, 828, 828, 827, 827, 827, 826, 825, 825, 823, 823, 821, 819, 819, 816, 816, 813, 810, 810, 805, 805, 802, 798, 798, 795
914, 914, 916, 918, 918, 920, 922, 922, 923, 924, 924, 926, 926, 926, 926, 926, 926, 926, 926, 926, 926, 926, 926, 924, 922, 922, 918, 918, 911, 898, 898, 898, 0, 871, 861, 858, 846, 846, 836, 836, 829, 825, 825, 824, 823, 823, 823, 823, 821, 821, 821, 821, 820, 820, 820, 820, 820, 821, 821, 821, 821, 823, 823, 823, 823, 824, 825, 825, 826, 826, 826, 827, 828, 828, 830, 830, 831, 832, 832, 835, 837, 837, 840, 846, 846, 853, 860, 860, 866, 874, 874, 880, 886, 886, 891, 894, 894, 895, 895, 896, 896, 896, 896, 0, 0, 0, 0, 0, 0, 0, 0, 0, 0, 0, 0, 0, 0, 666, 666, 665, 665, 665, 665, 666, 666, 666, 666, 666, 665, 665, 665, 666, 666, 666, 665, 665, 665, 665, 664, 663, 663, 662, 662, 662, 662, 662, 661, 661, 661, 660, 660, 660, 660, 660, 660, 660, 660, 660, 660, 660, 660, 661, 661, 661, 662, 662, 662, 662, 662, 662, 663, 663, 664, 664, 664, 665, 665, 665, 665, 664, 663, 663, 663, 663, 662, 662, 662, 660, 660, 660, 659, 659, 659, 658, 658, 658, 658, 658, 658, 658, 658, 658, 658, 658, 658, 658, 658, 658, 658, 658, 659, 659, 660, 660, 660, 661, 662, 662, 662, 662, 662, 663, 663, 663, 663, 663, 663, 662, 662, 662, 662, 662, 662, 662, 662, 662, 661, 661, 661, 662, 662, 662, 662, 662, 662, 662, 662, 663, 664, 664, 665, 666, 666, 666, 667, 666, 666, 666, 665, 665, 664, 663, 663, 662, 662, 662, 660, 660, 660, 660, 660, 659, 659, 659, 658, 658, 658, 657, 657, 656, 656, 656, 656, 656, 655, 655, 655, 655, 655, 655, 655, 655, 655, 655, 655, 655, 655, 655, 655, 655, 655, 655, 655, 655, 655, 655, 655, 655, 655, 655, 656, 656, 657, 658, 658, 658, 658, 659, 659, 659, 660, 660, 660, 660, 660, 661, 661, 661, 661, 661, 661, 660, 660, 660, 660, 660, 661, 661, 660, 660, 660, 660, 660, 660, 660, 660, 660, 660, 661, 661, 661, 661, 662, 662, 662, 662, 662, 662, 661, 661, 661, 661, 660, 659, 659, 658, 658, 658, 657, 657, 656, 655, 655, 655, 655, 654, 653, 653, 653, 651, 651, 651, 651, 651, 650, 650, 650, 650, 651, 651, 651, 651, 651, 651, 651, 652, 652, 652, 653, 653, 653, 654, 654, 654, 655, 655, 655, 655, 655, 655, 655, 655, 655, 655, 655, 655, 655, 654, 654, 654, 654, 653, 653, 653, 652, 651, 651, 651, 651, 651, 650, 650, 650, 650, 650, 650, 650, 650, 651, 651, 651, 651, 651, 651, 652, 652, 652, 653, 653, 653, 653, 653, 653, 653, 653, 653, 653, 653, 653, 653, 653, 653, 653, 653, 653, 653, 653, 653, 653, 653, 653, 653, 652, 652, 652, 651, 651, 651, 651, 651, 651, 651, 651, 651, 651, 651, 651, 651, 651, 651, 651, 651, 651, 652, 652, 652, 652, 652, 653, 653, 653, 653, 653, 653, 653, 653, 653, 653, 654, 654, 654, 654, 654, 654, 654, 654, 654, 654, 654, 654, 654, 653, 653, 653, 653, 653, 652, 652, 652, 652, 652, 651, 651, 651, 651, 650, 650, 650, 650, 0, 853, 853, 852, 852, 852, 851, 851, 851, 848, 848, 847, 846, 846, 845, 844, 844, 843, 843, 842, 840, 840, 839, 838, 838, 837, 837, 836, 835, 835, 834, 832, 832, 832, 832, 831, 830, 830, 829, 829, 829, 828, 828, 826, 825, 825, 824, 824, 821, 820, 820, 818, 815, 815, 813, 813, 809, 805, 805, 802, 802, 798, 794, 794, 790
914, 914, 916, 918, 918, 920, 922, 922, 923, 924, 924, 926, 926, 927, 927, 927, 927, 927, 926, 926, 927, 926, 926, 926, 924, 924, 919, 919, 912, 900, 900, 900, 0, 874, 861, 861, 850, 850, 838, 838, 831, 827, 827, 825, 824, 824, 823, 823, 823, 821, 821, 821, 821, 821, 821, 821, 821, 821, 823, 821, 821, 823, 823, 823, 823, 824, 825, 825, 826, 826, 826, 827, 828, 828, 830, 830, 831, 832, 832, 835, 837, 837, 840, 846, 846, 853, 860, 860, 866, 874, 874, 880, 886, 886, 891, 894, 894, 895, 895, 896, 896, 896, 896, 898, 898, 0, 0, 0, 0, 0, 0, 0, 0, 0, 0, 0, 0, 666, 666, 665, 665, 665, 665, 666, 666, 666, 666, 666, 665, 665, 665, 666, 666, 666, 665, 665, 665, 665, 664, 663, 663, 662, 662, 662, 662, 662, 661, 661, 661, 660, 660, 660, 660, 660, 660, 660, 660, 660, 660, 660, 660, 661, 661, 661, 662, 662, 662, 662, 662, 662, 663, 663, 664, 664, 664, 665, 665, 665, 665, 664, 663, 663, 663, 663, 662, 662, 662, 661, 660, 660, 660, 660, 659, 659, 659, 658, 658, 658, 658, 658, 658, 658, 658, 658, 658, 658, 658, 658, 658, 658, 659, 659, 660, 660, 660, 661, 662, 662, 662, 662, 662, 663, 663, 663, 663, 662, 662, 662, 662, 662, 662, 662, 662, 662, 662, 661, 661, 661, 661, 662, 662, 662, 662, 662, 662, 663, 663, 663, 664, 664, 665, 665, 665, 666, 666, 666, 666, 665, 665, 665, 664, 663, 663, 662, 662, 662, 660, 660, 660, 660, 660, 659, 659, 659, 658, 658, 658, 658, 658, 658, 658, 657, 657, 657, 657, 656, 656, 655, 655, 655, 655, 655, 655, 655, 655, 655, 655, 655, 655, 655, 655, 656, 656, 656, 656, 656, 656, 656, 656, 656, 657, 657, 658, 658, 658, 659, 659, 659, 660, 660, 660, 660, 660, 661, 661, 661, 661, 661, 662, 662, 662, 661, 661, 661, 661, 661, 661, 662, 662, 661, 661, 661, 661, 661, 661, 661, 661, 661, 662, 662, 662, 663, 663, 663, 663, 663, 663, 662, 662, 662, 662, 662, 661, 660, 660, 659, 658, 658, 658, 658, 657, 656, 656, 655, 655, 655, 653, 653, 653, 652, 652, 652, 652, 651, 651, 651, 651, 651, 651, 651, 651, 652, 652, 652, 652, 653, 653, 653, 653, 653, 653, 654, 654, 654, 655, 655, 655, 655, 655, 655, 655, 655, 655, 655, 655, 655, 655, 654, 654, 654, 654, 653, 653, 653, 652, 651, 651, 651, 651, 651, 650, 650, 650, 650, 650, 650, 650, 650, 651, 651, 651, 651, 651, 651, 652, 652, 652, 653, 653, 653, 653, 653, 653, 653, 653, 653, 653, 653, 653, 653, 653, 653, 653, 653, 653, 653, 653, 653, 653, 653, 653, 653, 652, 652, 652, 651, 651, 651, 651, 651, 651, 651, 651, 651, 651, 651, 651, 651, 651, 651, 651, 651, 651, 652, 652, 652, 652, 652, 653, 653, 653, 653, 653, 653, 653, 653, 653, 653, 654, 654, 654, 654, 654, 654, 654, 654, 654, 654, 654, 654, 654, 653, 653, 653, 653, 653, 653, 653, 653, 653, 652, 652, 652, 652, 652, 651, 651, 651, 651, 0, 850, 850, 848, 848, 848, 848, 847, 847, 846, 846, 845, 844, 844, 843, 842, 842, 842, 842, 840, 839, 839, 838, 837, 837, 836, 836, 835, 834, 834, 832, 832, 832, 831, 831, 830, 829, 829, 828, 827, 827, 826, 826, 825, 823, 823, 821, 821, 819, 817, 817, 815, 812, 812, 809, 809, 804, 801, 801, 797, 797, 793, 790, 790, 786
914, 914, 916, 918, 918, 920, 922, 922, 923, 924, 924, 926, 926, 927, 927, 927, 927, 927, 926, 926, 926, 926, 926, 924, 924, 924, 919, 915, 912, 900, 900, 890, 890, 874, 861, 861, 850, 850, 838, 838, 831, 827, 827, 825, 824, 824, 823, 823, 823, 821, 821, 821, 821, 821, 821, 821, 821, 821, 823, 823, 823, 823, 823, 824, 824, 824, 825, 825, 826, 827, 827, 828, 829, 829, 830, 830, 831, 832, 832, 835, 837, 837, 842, 847, 847, 853, 860, 860, 867, 875, 875, 881, 887, 887, 892, 895, 895, 896, 896, 898, 898, 898, 898, 898, 898, 0, 0, 0, 0, 0, 0, 0, 0, 0, 0, 0, 0, 0, 666, 666, 666, 666, 666, 667, 667, 667, 666, 666, 666, 666, 666, 666, 666, 666, 665, 665, 665, 665, 664, 664, 664, 663, 662, 662, 662, 662, 661, 661, 661, 661, 661, 661, 661, 661, 661, 661, 661, 661, 661, 661, 661, 662, 662, 662, 662, 662, 662, 662, 662, 663, 664, 664, 665, 665, 665, 665, 665, 665, 665, 665, 665, 665, 664, 664, 663, 663, 663, 662, 661, 661, 660, 660, 660, 660, 660, 659, 659, 659, 658, 658, 658, 658, 658, 658, 658, 658, 658, 658, 658, 658, 659, 659, 660, 660, 660, 661, 662, 662, 662, 662, 662, 663, 663, 663, 663, 662, 662, 662, 662, 662, 662, 662, 662, 662, 662, 661, 661, 661, 661, 662, 662, 662, 662, 662, 662, 663, 663, 664, 665, 665, 665, 665, 665, 666, 666, 666, 666, 665, 665, 665, 664, 663, 663, 663, 663, 662, 661, 661, 660, 660, 660, 660, 660, 659, 658, 658, 658, 658, 658, 658, 658, 657, 657, 657, 657, 656, 656, 655, 655, 655, 655, 655, 655, 655, 655, 655, 655, 655, 655, 655, 655, 656, 656, 656, 656, 656, 656, 656, 656, 656, 657, 657, 658, 658, 658, 659, 659, 659, 660, 660, 660, 660, 660, 661, 661, 661, 661, 661, 662, 662, 662, 661, 661, 661, 661, 661, 661, 662, 662, 661, 661, 661, 661, 661, 661, 661, 661, 661, 662, 662, 662, 663, 663, 663, 663, 663, 663, 662, 662, 662, 662, 662, 661, 660, 660, 659, 658, 658, 658, 658, 657, 656, 656, 655, 655, 655, 653, 653, 653, 652, 652, 652, 652, 651, 651, 651, 651, 651, 651, 651, 651, 652, 652, 652, 652, 653, 653, 653, 654, 655, 655, 655, 655, 655, 656, 656, 656, 656, 656, 656, 656, 656, 656, 655, 655, 655, 655, 655, 655, 655, 655, 654, 653, 653, 653, 653, 653, 652, 652, 651, 651, 651, 651, 651, 651, 651, 651, 651, 651, 651, 651, 651, 652, 652, 652, 652, 653, 653, 653, 653, 653, 653, 653, 653, 653, 653, 653, 653, 653, 653, 653, 653, 653, 653, 653, 654, 654, 654, 654, 654, 653, 653, 653, 653, 653, 653, 652, 652, 652, 652, 652, 651, 651, 651, 651, 651, 651, 652, 652, 652, 653, 653, 653, 653, 653, 653, 653, 653, 653, 653, 653, 654, 654, 654, 654, 654, 655, 655, 655, 655, 655, 655, 655, 655, 655, 654, 654, 654, 654, 654, 654, 654, 654, 654, 654, 654, 653, 653, 653, 653, 653, 653, 653, 653, 653, 653, 653, 653, 653, 0, 850, 850, 848, 848, 848, 848, 847, 847, 846, 846, 845, 844, 844, 843, 842, 842, 842, 842, 840, 839, 839, 838, 837, 837, 836, 836, 835, 834, 834, 832, 832, 832, 831, 831, 830, 829, 829, 828, 827, 827, 826, 826, 825, 823, 823, 821, 821, 819, 817, 817, 815, 812, 812, 809, 809, 804, 801, 801, 797, 797, 793, 790, 790, 786
914, 914, 916, 919, 919, 920, 922, 922, 924, 924, 924, 926, 926, 927, 927, 927, 927, 927, 927, 926, 926, 926, 926, 924, 924, 924, 920, 915, 915, 903, 903, 890, 890, 890, 0, 0, 852, 852, 840, 840, 832, 828, 828, 826, 825, 825, 824, 824, 824, 823, 823, 823, 823, 823, 823, 823, 823, 823, 823, 823, 823, 824, 824, 824, 825, 825, 826, 826, 827, 827, 827, 828, 830, 830, 831, 831, 832, 834, 834, 835, 838, 838, 842, 847, 847, 854, 861, 861, 867, 875, 875, 882, 887, 887, 892, 896, 896, 898, 899, 899, 899, 899, 900, 0, 0, 0, 0, 0, 0, 0, 0, 0, 0, 0, 0, 0, 0, 0, 666, 666, 666, 667, 667, 667, 667, 667, 667, 667, 667, 667, 667, 667, 667, 667, 666, 666, 665, 665, 665, 664, 664, 663, 662, 662, 662, 662, 662, 661, 661, 661, 661, 661, 661, 661, 661, 661, 661, 661, 661, 661, 661, 662, 662, 662, 662, 662, 662, 662, 662, 663, 664, 664, 665, 665, 665, 665, 665, 665, 665, 665, 665, 665, 664, 664, 663, 663, 663, 662, 661, 661, 660, 660, 660, 660, 660, 659, 659, 659, 658, 658, 658, 658, 658, 658, 658, 658, 658, 658, 658, 658, 659, 659, 660, 660, 660, 661, 662, 662, 662, 662, 662, 663, 663, 663, 663, 662, 662, 662, 662, 662, 662, 662, 662, 662, 662, 661, 661, 661, 661, 662, 662, 662, 662, 662, 662, 662, 662, 664, 664, 664, 665, 665, 665, 666, 666, 666, 666, 665, 665, 665, 664, 663, 663, 663, 663, 662, 661, 661, 660, 660, 660, 660, 660, 660, 659, 659, 659, 658, 658, 658, 658, 658, 658, 658, 658, 657, 657, 657, 657, 657, 656, 656, 656, 656, 656, 656, 656, 656, 656, 656, 656, 657, 657, 657, 657, 658, 658, 658, 658, 658, 658, 658, 658, 659, 659, 660, 660, 660, 660, 660, 660, 660, 660, 661, 661, 661, 661, 661, 662, 662, 662, 662, 662, 662, 662, 662, 662, 662, 662, 662, 662, 662, 662, 662, 662, 662, 662, 662, 662, 662, 662, 663, 663, 664, 664, 664, 664, 663, 663, 663, 662, 662, 662, 660, 660, 659, 658, 658, 658, 658, 658, 656, 656, 655, 655, 655, 654, 654, 653, 653, 653, 652, 652, 652, 652, 652, 651, 651, 652, 652, 652, 653, 653, 653, 653, 653, 654, 654, 655, 655, 655, 656, 656, 656, 657, 657, 657, 657, 657, 657, 657, 656, 656, 656, 656, 656, 655, 655, 655, 655, 655, 655, 654, 654, 653, 653, 653, 653, 653, 653, 651, 651, 651, 651, 651, 651, 652, 652, 652, 652, 652, 653, 653, 653, 653, 653, 653, 654, 654, 654, 654, 653, 653, 653, 653, 653, 653, 653, 653, 653, 654, 654, 654, 654, 654, 654, 654, 654, 654, 654, 654, 654, 653, 653, 653, 653, 653, 653, 653, 653, 653, 653, 653, 651, 651, 651, 651, 652, 652, 652, 653, 653, 653, 653, 653, 653, 653, 653, 653, 653, 653, 654, 654, 654, 654, 654, 655, 655, 655, 655, 655, 655, 655, 655, 655, 654, 654, 654, 654, 654, 654, 654, 654, 654, 654, 654, 653, 653, 653, 653, 653, 653, 653, 653, 653, 653, 653, 653, 653, 847, 847, 847, 846, 846, 846, 846, 845, 845, 845, 845, 844, 843, 843, 842, 840, 840, 839, 839, 839, 838, 838, 837, 836, 836, 835, 835, 834, 834, 834, 832, 831, 831, 830, 830, 829, 828, 828, 827, 826, 826, 824, 824, 823, 820, 820, 818, 818, 816, 813, 813, 811, 808, 808, 803, 803, 800, 796, 796, 793, 793, 789, 785, 785, 782
