951, 951, 953, 954, 954, 957, 957, 959, 962, 962, 963, 966, 966, 971, 975, 975, 980, 983, 983, 988, 988, 993, 996, 996, 997, 1001, 1001, 1004, 1009, 1009, 1014, 1015, 1015, 1017, 1017, 1019, 1020, 1020, 1022, 1024, 1022, 1020, 1020, 1019, 1019, 1019, 1020, 1020, 1020, 1019, 1019, 1017, 1017, 1015, 1012, 1012, 1009, 997, 997, 986, 986, 977, 977, 966, 957, 957, 948, 948, 941, 934, 934, 930, 929, 929, 929, 929, 929, 927, 927, 926, 926, 926, 926, 926, 926, 926, 927, 927, 929, 930, 930, 931, 933, 933, 934, 934, 934, 936, 936, 937, 937, 937, 940, 944, 944, 950, 950, 956, 965, 965, 971, 978, 978, 985, 993, 993, 999, 1004, 1004, 1005, 1009, 1009, 1010, 1012, 1012, 1012, 1012, 1010, 1010, 1009, 1005, 1005, 1004, 1004, 999, 996, 996, 994, 991, 991, 989, 989, 989, 0, 0, 0, 0, 0, 0, 0, 0, 0, 797, 797, 797, 797, 798, 798, 798, 798, 798, 798, 799, 799, 800, 800, 800, 800, 800, 798, 798, 798, 798, 798, 797, 797, 797, 796, 796, 796, 796, 796, 796, 796, 796, 796, 796, 796, 796, 797, 797, 798, 798, 798, 799, 799, 798, 798, 798, 797, 797, 797, 797, 797, 797, 797, 797, 798, 799, 799, 799, 801, 801, 801, 801, 803, 803, 803, 803, 803, 803, 803, 803, 803, 803, 802, 802, 802, 802, 802, 801, 800, 800, 800, 799, 799, 798, 798, 798, 798, 798, 798, 798, 798, 798, 798, 798, 798, 798, 798, 798, 799, 799, 799, 799, 799, 799, 799, 799, 799, 799, 799, 799, 798, 798, 798, 798, 798, 797, 797, 797, 797, 797, 797, 797, 797, 797, 798, 798, 798, 799, 799, 799, 799, 799, 799, 799, 799, 799, 799, 798, 798, 798, 798, 798, 798, 798, 798, 798, 799, 799, 798, 798, 798, 798, 798, 797, 796, 796, 795, 795, 794, 794, 794, 794, 794, 794, 794, 794, 794, 795, 795, 795, 795, 796, 796, 796, 796, 796, 796, 795, 795, 795, 794, 793, 793, 792, 792, 791, 791, 791, 791, 791, 791, 791, 791, 791, 792, 792, 792, 793, 794, 794, 794, 794, 795, 796, 796, 796, 796, 796, 796, 796, 796, 796, 796, 796, 796, 796, 796, 796, 796, 796, 796, 796, 796, 795, 795, 795, 794, 794, 794, 793, 793, 793, 792, 792, 792, 792, 791, 790, 790, 790, 790, 790, 790, 790, 790, 790, 790, 789, 789, 789, 789, 788, 788, 788, 788, 788, 788, 788, 788, 788, 788, 788, 788, 788, 788, 788, 788, 788, 788, 788, 788, 787, 786, 786, 786, 786, 786, 785, 785, 785, 785, 785, 785, 785, 785, 785, 785, 786, 786, 786, 786, 786, 786, 786, 786, 786, 786, 787, 787, 787, 787, 787, 787, 788, 788, 788, 788, 787, 787, 787, 786, 786, 786, 786, 785, 784, 784, 783, 782, 782, 781, 781, 781, 780, 780, 780, 780, 780, 780, 780, 780, 781, 782, 782, 783, 784, 784, 784, 785, 784, 784, 784, 783, 783, 783, 783, 783, 782, 782, 782, 975, 975, 975, 975, 975, 977, 977, 978, 978, 978, 978, 978, 978, 980, 980, 980, 980, 980, 980, 982, 982, 982, 982, 983, 983, 983, 983, 985, 985, 985, 985, 985, 985, 985, 985, 985, 985, 985, 985, 985, 985, 985, 985, 985, 983, 983, 983, 983, 983, 983, 983, 983, 982, 982, 982, 982, 982, 982, 982, 982, 982, 982, 982, 982, 982, 980, 980, 980, 980, 980, 980, 980, 982, 982, 982, 982, 982, 982, 982, 982, 982, 982, 982, 982, 982, 982, 982, 982, 982
951, 951, 953, 954, 954, 957, 957, 959, 962, 962, 963, 966, 966, 969, 974, 974, 978, 983, 983, 988, 988, 991, 994, 994, 996, 999, 999, 1004, 1007, 1007, 1012, 1015, 1015, 1015, 1015, 1019, 1020, 1020, 1022, 1022, 1022, 1020, 1020, 1019, 1019, 1019, 1019, 1020, 1020, 1019, 1019, 1017, 1017, 1015, 1012, 1012, 1009, 997, 997, 986, 986, 977, 977, 966, 957, 957, 948, 948, 941, 934, 934, 930, 929, 929, 929, 929, 929, 927, 927, 926, 926, 926, 926, 926, 926, 926, 927, 927, 929, 930, 930, 931, 933, 933, 933, 933, 934, 936, 936, 937, 937, 937, 940, 944, 944, 950, 950, 956, 965, 965, 971, 978, 978, 985, 993, 993, 999, 1004, 1004, 1007, 1009, 1009, 1012, 1014, 1014, 1014, 1014, 1012, 1012, 1009, 1005, 1005, 1004, 1004, 997, 994, 994, 993, 989, 989, 988, 988, 988, 0, 0, 0, 0, 0, 0, 0, 0, 0, 797, 797, 797, 797, 798, 798, 798, 799, 799, 799, 799, 799, 800, 800, 799, 799, 799, 798, 798, 797, 796, 796, 796, 796, 795, 794, 794, 794, 794, 794, 794, 794, 794, 794, 794, 794, 795, 796, 796, 797, 797, 797, 797, 797, 796, 796, 796, 795, 795, 795, 795, 795, 795, 796, 796, 797, 798, 798, 799, 800, 800, 801, 801, 802, 803, 803, 803, 803, 803, 803, 802, 802, 802, 802, 801, 801, 801, 801, 801, 800, 800, 800, 799, 799, 798, 798, 798, 798, 798, 798, 798, 798, 798, 798, 798, 798, 798, 798, 798, 799, 799, 799, 799, 799, 799, 799, 799, 799, 799, 799, 799, 798, 798, 798, 798, 798, 797, 797, 797, 797, 797, 797, 797, 797, 797, 798, 799, 799, 799, 799, 799, 799, 799, 799, 799, 799, 799, 799, 798, 798, 798, 798, 798, 798, 798, 798, 798, 799, 799, 798, 798, 798, 798, 798, 797, 796, 796, 795, 795, 794, 794, 794, 794, 794, 794, 794, 794, 794, 795, 795, 795, 795, 796, 796, 796, 796, 796, 796, 795, 795, 795, 794, 793, 793, 792, 792, 791, 791, 791, 791, 791, 791, 791, 791, 791, 792, 792, 792, 793, 794, 794, 794, 794, 795, 796, 796, 796, 796, 796, 796, 796, 796, 796, 796, 796, 796, 796, 796, 796, 796, 796, 796, 796, 796, 795, 795, 795, 794, 794, 794, 793, 793, 793, 792, 792, 792, 792, 791, 790, 790, 790, 790, 790, 790, 790, 789, 789, 789, 789, 789, 789, 788, 788, 788, 787, 787, 787, 788, 788, 788, 788, 788, 788, 788, 788, 788, 788, 788, 788, 788, 787, 787, 787, 786, 786, 786, 786, 786, 785, 785, 785, 785, 785, 785, 785, 785, 785, 785, 786, 786, 786, 786, 786, 786, 786, 786, 786, 786, 787, 787, 787, 787, 787, 787, 787, 787, 787, 787, 786, 786, 786, 786, 786, 785, 785, 784, 783, 783, 782, 782, 782, 781, 781, 781, 780, 780, 780, 780, 780, 780, 780, 780, 781, 782, 782, 783, 784, 784, 784, 785, 784, 784, 783, 783, 783, 783, 783, 783, 782, 782, 782, 974, 974, 974, 974, 975, 977, 977, 978, 978, 978, 978, 978, 978, 978, 978, 978, 978, 978, 980, 980, 980, 982, 982, 983, 983, 983, 983, 983, 983, 985, 985, 985, 985, 985, 985, 985, 985, 985, 985, 983, 983, 983, 983, 983, 983, 983, 983, 982, 982, 982, 982, 982, 982, 982, 982, 982, 982, 982, 982, 982, 982, 982, 982, 982, 982, 982, 982, 982, 982, 982, 982, 982, 982, 982, 982, 982, 982, 982, 982, 982, 982, 982, 982, 982, 982, 982, 982, 982, 982
953, 953, 954, 954, 954, 957, 957, 959, 962, 962, 963, 966, 966, 969, 974, 974, 978, 983, 983, 988, 988, 991, 993, 993, 994, 997, 997, 1002, 1005, 1005, 1010, 1012, 1012, 1015, 1015, 1017, 1019, 1019, 1020, 1020, 1019, 1019, 1019, 1017, 1017, 1017, 1019, 1019, 1019, 1019, 1019, 1017, 1017, 1015, 1012, 1012, 1009, 999, 999, 988, 988, 977, 977, 0, 957, 957, 948, 948, 941, 934, 934, 930, 929, 929, 929, 929, 929, 927, 927, 926, 926, 926, 926, 926, 926, 926, 927, 927, 929, 930, 930, 931, 933, 933, 933, 933, 934, 936, 936, 937, 937, 937, 940, 944, 944, 950, 950, 956, 965, 965, 971, 978, 978, 985, 993, 993, 999, 1004, 1004, 1007, 1010, 1010, 1014, 1014, 1014, 1014, 1014, 1012, 1012, 1010, 1005, 1005, 1004, 1004, 997, 994, 994, 993, 989, 989, 988, 988, 988, 0, 0, 0, 0, 0, 0, 0, 0, 0, 797, 797, 798, 798, 799, 799, 799, 799, 799, 799, 799, 799, 800, 800, 799, 799, 799, 798, 798, 797, 796, 796, 796, 796, 795, 794, 794, 794, 794, 794, 794, 794, 794, 794, 794, 794, 795, 796, 796, 797, 797, 797, 797, 797, 796, 796, 796, 795, 795, 795, 795, 795, 795, 796, 796, 797, 798, 798, 799, 800, 800, 801, 801, 802, 803, 803, 803, 803, 803, 803, 802, 802, 802, 802, 801, 801, 801, 801, 800, 800, 800, 799, 798, 798, 798, 798, 798, 798, 798, 798, 798, 798, 798, 798, 798, 798, 798, 798, 798, 798, 798, 798, 798, 798, 798, 797, 797, 798, 797, 797, 797, 796, 796, 796, 796, 796, 796, 796, 797, 796, 796, 797, 797, 797, 797, 798, 799, 799, 799, 799, 799, 799, 799, 799, 799, 799, 798, 798, 798, 798, 798, 798, 798, 798, 798, 798, 798, 797, 797, 797, 797, 797, 796, 796, 796, 795, 795, 794, 794, 794, 793, 793, 793, 793, 794, 794, 794, 794, 794, 795, 795, 795, 795, 795, 796, 796, 796, 796, 795, 794, 794, 794, 792, 792, 791, 791, 791, 791, 791, 791, 791, 791, 791, 791, 791, 791, 792, 792, 793, 794, 794, 794, 794, 795, 795, 795, 795, 795, 795, 795, 795, 795, 795, 795, 795, 795, 795, 795, 795, 795, 795, 795, 795, 795, 795, 795, 795, 794, 794, 794, 793, 793, 793, 792, 792, 792, 792, 791, 790, 790, 790, 790, 790, 789, 789, 789, 789, 789, 789, 788, 788, 788, 788, 788, 787, 787, 787, 788, 788, 788, 788, 788, 788, 788, 788, 788, 788, 788, 788, 788, 787, 787, 786, 786, 786, 785, 785, 786, 785, 785, 785, 785, 785, 785, 785, 785, 785, 785, 786, 786, 786, 786, 786, 786, 786, 786, 786, 786, 786, 786, 786, 787, 787, 787, 787, 787, 787, 786, 785, 785, 785, 785, 785, 784, 784, 783, 782, 782, 782, 782, 782, 781, 781, 781, 781, 781, 781, 781, 781, 781, 781, 782, 782, 782, 782, 784, 784, 784, 784, 785, 784, 784, 783, 783, 784, 783, 783, 783, 782, 782, 782, 974, 974, 974, 974, 975, 977, 977, 978, 978, 978, 978, 978, 978, 978, 978, 978, 978, 978, 980, 980, 980, 982, 982, 983, 983, 983, 983, 983, 983, 985, 985, 985, 985, 985, 985, 985, 985, 985, 985, 983, 983, 983, 983, 983, 983, 983, 983, 982, 982, 982, 982, 982, 982, 982, 982, 982, 982, 982, 982, 982, 982, 982, 982, 982, 982, 982, 982, 982, 982, 983, 983, 983, 983, 983, 983, 983, 983, 983, 983, 983, 983, 983, 983, 983, 982, 982, 982, 982, 982
953, 953, 954, 954, 954, 957, 957, 959, 962, 962, 963, 966, 966, 969, 974, 974, 978, 983, 983, 988, 988, 991, 993, 993, 994, 997, 997, 1002, 1005, 1005, 1010, 1012, 1012, 1015, 1015, 1017, 1019, 1019, 1020, 1020, 1019, 1019, 1019, 1017, 1017, 1017, 1019, 1019, 1019, 1019, 1019, 1017, 1017, 1015, 1012, 1012, 1009, 999, 999, 988, 988, 977, 977, 0, 957, 957, 948, 948, 941, 934, 934, 930, 929, 929, 929, 929, 929, 927, 927, 926, 926, 926, 926, 926, 926, 926, 927, 927, 929, 930, 930, 931, 933, 933, 933, 933, 934, 936, 936, 937, 937, 937, 940, 944, 944, 950, 950, 956, 965, 965, 971, 978, 978, 985, 993, 993, 999, 1004, 1004, 1007, 1010, 1010, 1014, 1014, 1014, 1014, 1014, 1012, 1012, 1009, 1005, 1005, 1002, 1002, 997, 993, 993, 991, 988, 988, 986, 986, 982, 982, 0, 0, 0, 0, 0, 0, 0, 0, 797, 797, 798, 798, 799, 799, 799, 799, 799, 799, 799, 799, 799, 799, 799, 799, 798, 797, 797, 796, 795, 795, 795, 795, 794, 793, 793, 793, 793, 794, 794, 794, 794, 794, 794, 794, 794, 794, 794, 795, 796, 796, 796, 796, 795, 795, 795, 794, 794, 794, 794, 794, 794, 795, 795, 796, 796, 796, 798, 799, 799, 800, 800, 801, 802, 802, 803, 803, 802, 802, 802, 802, 802, 801, 800, 800, 800, 800, 800, 799, 799, 798, 798, 798, 798, 798, 798, 798, 798, 798, 798, 798, 798, 798, 798, 798, 798, 798, 797, 797, 797, 796, 796, 796, 796, 796, 795, 795, 795, 795, 795, 795, 795, 795, 795, 795, 795, 795, 796, 796, 796, 797, 797, 797, 797, 798, 799, 799, 799, 799, 799, 799, 799, 799, 799, 799, 798, 798, 797, 797, 797, 796, 796, 796, 796, 796, 796, 796, 796, 796, 796, 795, 795, 795, 794, 794, 794, 793, 793, 793, 793, 793, 793, 793, 793, 793, 794, 794, 794, 795, 795, 795, 795, 795, 796, 796, 796, 796, 795, 794, 794, 793, 792, 792, 791, 791, 791, 790, 790, 790, 790, 790, 790, 791, 791, 791, 792, 792, 793, 794, 794, 794, 794, 795, 795, 795, 795, 795, 795, 795, 795, 795, 795, 795, 795, 795, 795, 795, 795, 795, 795, 795, 795, 795, 795, 795, 795, 795, 795, 794, 793, 793, 793, 793, 793, 792, 792, 791, 791, 791, 790, 790, 790, 789, 789, 789, 789, 789, 789, 788, 788, 788, 788, 788, 788, 788, 788, 788, 788, 788, 788, 788, 788, 788, 788, 788, 788, 788, 788, 788, 787, 787, 786, 786, 786, 785, 785, 786, 785, 785, 785, 785, 785, 785, 785, 785, 785, 785, 786, 786, 786, 786, 786, 786, 786, 786, 786, 786, 786, 786, 786, 787, 787, 787, 787, 787, 787, 786, 785, 785, 785, 785, 785, 784, 784, 783, 782, 782, 782, 782, 782, 781, 781, 781, 781, 781, 781, 781, 782, 782, 782, 782, 782, 783, 783, 784, 784, 784, 785, 785, 784, 784, 784, 784, 784, 783, 783, 783, 782, 782, 782, 974, 974, 974, 974, 974, 977, 977, 977, 978, 978, 978, 978, 978, 978, 978, 978, 978, 978, 978, 978, 980, 982, 982, 982, 982, 982, 983, 983, 983, 983, 983, 983, 983, 983, 983, 983, 983, 983, 983, 983, 983, 983, 983, 983, 982, 982, 982, 982, 982, 982, 982, 982, 982, 982, 982, 982, 982, 982, 982, 982, 982, 982, 982, 982, 982, 982, 982, 982, 982, 983, 983, 983, 983, 983, 983, 983, 983, 983, 983, 983, 983, 983, 983, 983, 982, 982, 982, 982, 982
953, 953, 954, 954, 954, 957, 957, 959, 962, 962, 963, 966, 966, 969, 974, 974, 978, 983, 983, 986, 986, 989, 993, 993, 994, 996, 996, 1001, 1005, 1005, 1009, 1010, 1010, 1014, 1014, 1015, 1017, 1017, 1019, 1019, 1019, 1017, 1017, 1015, 1015, 1015, 1017, 1017, 1017, 1015, 1015, 1015, 1015, 1014, 1010, 1010, 1007, 999, 999, 988, 988, 977, 977, 0, 957, 957, 950, 950, 940, 934, 934, 931, 929, 929, 929, 929, 929, 927, 927, 926, 926, 926, 926, 926, 926, 927, 927, 927, 929, 930, 930, 931, 931, 931, 933, 933, 934, 936, 936, 936, 937, 937, 938, 944, 944, 950, 950, 957, 965, 965, 971, 978, 978, 986, 993, 993, 1001, 1004, 1004, 1007, 1010, 1010, 1014, 1014, 1014, 1014, 1014, 1012, 1012, 1009, 1005, 1005, 1002, 1002, 996, 991, 991, 989, 986, 986, 985, 985, 982, 982, 0, 0, 0, 0, 0, 0, 0, 0, 798, 798, 798, 798, 799, 799, 799, 799, 799, 799, 799, 799, 799, 799, 798, 798, 798, 797, 797, 795, 795, 795, 794, 794, 793, 792, 792, 792, 793, 793, 793, 794, 794, 794, 794, 794, 794, 794, 794, 795, 796, 796, 796, 796, 795, 795, 795, 794, 794, 794, 794, 794, 794, 795, 795, 796, 796, 796, 798, 799, 799, 800, 800, 801, 802, 802, 803, 803, 802, 802, 802, 802, 802, 801, 800, 800, 800, 800, 800, 799, 799, 798, 798, 798, 798, 798, 798, 798, 798, 798, 798, 798, 798, 798, 798, 798, 798, 798, 797, 797, 797, 796, 796, 796, 796, 796, 795, 795, 795, 795, 795, 795, 795, 795, 795, 795, 795, 795, 796, 796, 796, 797, 797, 798, 798, 798, 799, 799, 799, 799, 799, 799, 799, 799, 799, 799, 798, 798, 797, 797, 797, 796, 796, 796, 796, 796, 796, 796, 796, 796, 796, 795, 795, 795, 794, 794, 794, 793, 793, 793, 793, 793, 793, 793, 793, 793, 794, 794, 794, 795, 795, 795, 796, 796, 796, 796, 796, 796, 795, 794, 794, 793, 793, 793, 792, 792, 791, 790, 790, 790, 790, 790, 790, 791, 791, 791, 791, 791, 792, 794, 794, 794, 794, 794, 795, 795, 795, 795, 794, 794, 794, 794, 794, 794, 794, 794, 794, 794, 794, 794, 794, 794, 794, 794, 794, 794, 794, 794, 794, 794, 793, 793, 793, 792, 792, 792, 792, 791, 791, 791, 790, 790, 790, 789, 789, 789, 789, 789, 788, 788, 788, 788, 788, 788, 788, 788, 788, 788, 788, 788, 788, 788, 788, 788, 788, 788, 788, 788, 787, 787, 787, 787, 786, 786, 786, 785, 785, 785, 785, 785, 785, 785, 785, 785, 785, 785, 785, 785, 786, 786, 786, 786, 786, 786, 786, 786, 786, 786, 786, 786, 786, 786, 786, 786, 786, 786, 786, 785, 784, 784, 784, 783, 783, 782, 782, 782, 781, 781, 780, 780, 780, 780, 781, 781, 780, 780, 780, 781, 782, 782, 782, 782, 782, 783, 783, 784, 784, 784, 785, 785, 784, 784, 783, 783, 784, 783, 783, 783, 782, 782, 782, 972, 972, 974, 974, 974, 975, 975, 977, 977, 977, 977, 977, 977, 978, 978, 978, 978, 978, 978, 978, 980, 980, 980, 982, 982, 982, 982, 983, 983, 983, 983, 983, 983, 983, 983, 983, 983, 983, 983, 983, 983, 982, 982, 982, 982, 982, 982, 980, 980, 980, 982, 982, 982, 982, 982, 982, 982, 982, 982, 982, 982, 982, 983, 983, 983, 983, 983, 983, 983, 983, 983, 983, 983, 983, 983, 985, 985, 985, 985, 985, 985, 985, 983, 983, 983, 982, 982, 982, 982
953, 953, 954, 956, 956, 957, 957, 959, 962, 962, 965, 966, 966, 971, 974, 974, 978, 983, 983, 986, 986, 989, 993, 993, 994, 996, 996, 1001, 1005, 1005, 1009, 1010, 1010, 1014, 1014, 1015, 1017, 1017, 1019, 1019, 1019, 1017, 1017, 1015, 1015, 1015, 1017, 1017, 1017, 1015, 1015, 1015, 1015, 1014, 1010, 1010, 1007, 999, 999, 988, 988, 977, 977, 0, 957, 957, 950, 950, 940, 934, 934, 931, 929, 929, 929, 929, 929, 927, 927, 926, 926, 926, 926, 926, 926, 927, 927, 927, 929, 930, 930, 931, 931, 931, 933, 933, 934, 936, 936, 936, 937, 937, 938, 944, 944, 950, 950, 957, 965, 965, 971, 978, 978, 986, 993, 993, 1001, 1005, 1005, 1007, 1012, 1012, 1014, 1014, 1014, 1015, 1014, 1012, 1012, 1010, 1005, 1005, 1002, 1002, 996, 991, 991, 989, 986, 986, 985, 985, 982, 982, 0, 0, 0, 0, 0, 0, 0, 0, 798, 798, 798, 798, 799, 799, 799, 799, 799, 799, 799, 799, 799, 799, 798, 798, 798, 797, 797, 795, 795, 795, 794, 794, 793, 792, 792, 792, 793, 793, 793, 793, 793, 793, 793, 793, 793, 794, 794, 795, 795, 795, 795, 795, 794, 794, 794, 793, 793, 793, 793, 793, 794, 795, 795, 795, 796, 796, 797, 799, 799, 799, 799, 801, 802, 802, 802, 802, 802, 802, 802, 802, 802, 801, 800, 800, 799, 799, 799, 799, 799, 798, 798, 798, 797, 797, 797, 797, 798, 798, 798, 798, 797, 797, 797, 797, 797, 797, 797, 797, 797, 796, 796, 795, 795, 795, 794, 794, 794, 794, 794, 793, 793, 793, 794, 794, 794, 794, 795, 795, 796, 797, 797, 797, 797, 798, 799, 799, 799, 799, 799, 799, 799, 798, 798, 798, 797, 797, 796, 796, 796, 795, 795, 795, 795, 795, 795, 795, 795, 795, 795, 794, 794, 794, 794, 793, 793, 793, 793, 793, 792, 792, 792, 793, 793, 793, 794, 794, 794, 795, 795, 795, 796, 796, 796, 796, 796, 796, 795, 794, 794, 793, 793, 793, 792, 792, 791, 790, 790, 790, 790, 790, 790, 791, 791, 791, 791, 791, 792, 793, 793, 793, 793, 794, 794, 794, 794, 794, 794, 794, 794, 793, 793, 793, 793, 793, 793, 793, 794, 794, 794, 794, 794, 794, 794, 794, 794, 794, 794, 794, 793, 793, 793, 792, 792, 792, 792, 791, 791, 791, 790, 790, 790, 789, 789, 789, 789, 789, 788, 788, 788, 788, 788, 788, 788, 788, 787, 787, 787, 787, 787, 787, 787, 787, 787, 788, 788, 787, 787, 787, 787, 787, 786, 786, 786, 785, 785, 785, 785, 785, 785, 785, 785, 785, 785, 785, 785, 785, 786, 786, 786, 786, 786, 786, 786, 786, 786, 786, 786, 786, 786, 786, 786, 786, 786, 786, 786, 785, 784, 784, 784, 783, 783, 782, 782, 782, 781, 781, 780, 780, 780, 780, 781, 781, 780, 780, 780, 781, 782, 782, 782, 782, 782, 783, 783, 784, 784, 784, 785, 785, 784, 784, 783, 783, 784, 783, 783, 783, 783, 971, 972, 972, 972, 974, 974, 974, 975, 975, 977, 977, 977, 977, 977, 977, 978, 978, 978, 978, 978, 978, 980, 980, 980, 980, 982, 982, 982, 982, 983, 983, 983, 983, 983, 983, 983, 983, 983, 983, 983, 983, 983, 983, 982, 982, 982, 982, 982, 982, 980, 980, 980, 982, 982, 982, 982, 982, 982, 982, 982, 982, 982, 982, 982, 983, 983, 983, 983, 983, 983, 983, 985, 985, 985, 985, 985, 985, 985, 985, 985, 985, 985, 985, 985, 985, 985, 983, 982, 982, 982, 982
953, 953, 954, 956, 956, 957, 957, 959, 962, 962, 965, 968, 968, 971, 975, 975, 980, 983, 983, 986, 986, 989, 991, 991, 993, 996, 996, 999, 1004, 1004, 1007, 1010, 1010, 1012, 1012, 1014, 1015, 1015, 1017, 1019, 1017, 1015, 1015, 1015, 1015, 1015, 1015, 1015, 1015, 1015, 1015, 1014, 1014, 1012, 1009, 1009, 1005, 997, 997, 988, 988, 977, 977, 966, 957, 957, 950, 950, 940, 934, 934, 931, 929, 929, 929, 929, 929, 927, 927, 926, 926, 926, 926, 926, 926, 927, 927, 927, 929, 930, 930, 931, 931, 931, 933, 933, 934, 936, 936, 936, 937, 937, 938, 944, 944, 950, 950, 957, 965, 965, 971, 978, 978, 986, 993, 993, 1001, 1005, 1005, 1007, 1012, 1012, 1014, 1014, 1014, 1014, 1012, 1010, 1010, 1009, 1005, 1005, 1001, 1001, 994, 989, 989, 989, 986, 986, 985, 985, 982, 982, 0, 0, 0, 0, 0, 0, 0, 0, 798, 798, 798, 798, 799, 799, 799, 799, 799, 799, 799, 799, 799, 799, 798, 798, 798, 796, 796, 795, 795, 795, 794, 794, 793, 792, 792, 792, 793, 793, 793, 793, 793, 793, 793, 793, 793, 794, 794, 795, 795, 795, 795, 794, 794, 794, 793, 793, 793, 793, 793, 793, 794, 795, 795, 795, 796, 796, 797, 798, 798, 799, 799, 801, 802, 802, 802, 802, 802, 802, 802, 802, 802, 801, 800, 800, 799, 799, 799, 799, 799, 798, 798, 798, 797, 797, 797, 797, 798, 798, 798, 798, 797, 797, 797, 797, 797, 797, 797, 797, 796, 795, 795, 795, 795, 794, 793, 793, 793, 793, 793, 792, 792, 792, 792, 793, 793, 793, 795, 795, 796, 797, 797, 797, 797, 798, 799, 799, 799, 799, 799, 799, 799, 798, 798, 797, 796, 796, 795, 795, 794, 794, 794, 794, 795, 795, 795, 795, 795, 795, 795, 794, 794, 794, 794, 793, 793, 793, 793, 793, 792, 792, 792, 793, 793, 793, 794, 794, 795, 795, 795, 795, 796, 796, 796, 796, 796, 796, 795, 795, 795, 794, 794, 794, 792, 792, 791, 791, 791, 791, 791, 791, 791, 791, 791, 791, 792, 792, 792, 793, 793, 793, 793, 794, 794, 794, 794, 794, 794, 794, 794, 793, 793, 793, 793, 793, 793, 793, 794, 794, 794, 794, 794, 794, 794, 794, 794, 794, 794, 794, 794, 794, 793, 793, 793, 792, 792, 791, 791, 791, 790, 790, 790, 790, 789, 789, 789, 789, 788, 788, 788, 788, 788, 788, 788, 788, 787, 787, 787, 787, 787, 787, 787, 787, 787, 788, 788, 787, 787, 787, 787, 787, 786, 786, 786, 786, 786, 786, 785, 785, 785, 785, 785, 785, 786, 786, 786, 786, 786, 786, 786, 786, 786, 786, 786, 786, 786, 786, 786, 786, 786, 786, 786, 786, 786, 785, 785, 784, 784, 784, 783, 782, 782, 781, 781, 780, 780, 780, 779, 779, 779, 779, 779, 779, 780, 780, 780, 780, 781, 781, 782, 782, 782, 783, 783, 784, 784, 784, 785, 785, 784, 784, 783, 783, 783, 783, 783, 783, 783, 971, 971, 972, 972, 974, 974, 974, 975, 975, 977, 977, 977, 977, 977, 977, 977, 977, 977, 977, 977, 978, 980, 980, 980, 980, 982, 982, 982, 982, 982, 982, 983, 982, 982, 982, 982, 982, 982, 982, 982, 982, 982, 982, 980, 980, 980, 980, 980, 980, 980, 980, 980, 980, 980, 980, 982, 982, 982, 982, 982, 982, 982, 982, 982, 983, 983, 983, 983, 983, 983, 983, 985, 985, 985, 985, 985, 985, 985, 985, 985, 985, 985, 985, 985, 985, 985, 983, 982, 982, 982, 982
951, 951, 953, 954, 954, 956, 956, 959, 962, 962, 965, 968, 968, 971, 975, 975, 980, 983, 983, 986, 986, 989, 991, 991, 993, 996, 996, 999, 1004, 1004, 1007, 1009, 1009, 1010, 1010, 1014, 1015, 1015, 1017, 1017, 1015, 1015, 1015, 1014, 1014, 1014, 1014, 1014, 1014, 1012, 1012, 1012, 1012, 1010, 1009, 1009, 1005, 997, 997, 986, 986, 977, 977, 966, 957, 957, 950, 950, 941, 934, 934, 931, 929, 929, 929, 929, 929, 927, 927, 926, 926, 926, 926, 926, 926, 926, 927, 927, 929, 930, 930, 931, 931, 931, 931, 931, 934, 934, 934, 936, 937, 937, 938, 944, 944, 950, 957, 957, 965, 965, 972, 980, 980, 986, 994, 994, 1001, 1005, 1005, 1009, 1010, 1010, 1014, 1014, 1014, 1014, 1012, 1010, 1010, 1009, 1005, 1005, 1001, 1001, 994, 989, 989, 989, 986, 986, 985, 985, 982, 982, 0, 0, 0, 0, 0, 0, 0, 0, 799, 798, 798, 798, 799, 800, 799, 799, 799, 799, 799, 799, 799, 799, 798, 798, 798, 796, 796, 796, 795, 795, 795, 795, 793, 793, 793, 793, 793, 793, 793, 793, 793, 794, 794, 794, 794, 794, 794, 795, 795, 795, 795, 794, 794, 794, 793, 793, 793, 793, 794, 794, 794, 795, 795, 795, 797, 797, 797, 798, 798, 800, 800, 801, 802, 802, 803, 803, 803, 803, 802, 802, 802, 802, 801, 801, 800, 800, 800, 799, 799, 798, 798, 798, 798, 798, 798, 798, 798, 798, 798, 798, 797, 797, 797, 797, 797, 797, 797, 797, 796, 795, 795, 795, 795, 794, 793, 793, 793, 793, 793, 792, 792, 792, 792, 793, 793, 793, 795, 795, 796, 797, 797, 798, 798, 799, 800, 800, 799, 799, 799, 799, 799, 798, 798, 797, 796, 796, 795, 795, 794, 794, 794, 794, 794, 794, 794, 794, 794, 794, 794, 793, 793, 793, 793, 793, 793, 792, 792, 792, 792, 792, 792, 793, 793, 793, 794, 794, 795, 795, 795, 795, 796, 796, 796, 796, 796, 796, 795, 795, 795, 794, 794, 794, 792, 792, 791, 791, 791, 791, 791, 791, 791, 791, 791, 791, 792, 792, 792, 793, 793, 793, 793, 793, 794, 793, 793, 793, 793, 793, 793, 792, 792, 792, 792, 793, 793, 793, 793, 793, 793, 793, 794, 794, 794, 794, 794, 794, 794, 794, 794, 794, 793, 793, 793, 792, 792, 791, 791, 791, 790, 790, 790, 790, 789, 789, 789, 789, 788, 788, 788, 788, 788, 788, 787, 787, 787, 787, 787, 787, 787, 787, 787, 787, 787, 788, 788, 787, 787, 787, 787, 787, 786, 786, 786, 786, 786, 786, 785, 785, 785, 785, 785, 785, 786, 786, 786, 786, 786, 786, 786, 786, 786, 786, 786, 786, 786, 786, 786, 786, 786, 786, 786, 785, 785, 784, 784, 783, 782, 782, 782, 781, 781, 780, 780, 780, 779, 779, 778, 778, 778, 778, 779, 779, 779, 779, 779, 780, 781, 781, 782, 782, 782, 783, 783, 784, 785, 785, 785, 785, 784, 784, 783, 783, 783, 783, 783, 783, 783, 969, 971, 972, 972, 974, 974, 974, 975, 975, 977, 977, 977, 977, 977, 977, 977, 977, 977, 977, 977, 978, 980, 980, 980, 980, 982, 982, 982, 982, 982, 982, 982, 982, 982, 982, 982, 982, 982, 982, 982, 980, 980, 980, 980, 980, 980, 980, 980, 978, 978, 978, 978, 980, 980, 980, 980, 982, 982, 982, 982, 982, 982, 982, 983, 983, 983, 983, 983, 985, 985, 985, 985, 985, 985, 986, 986, 986, 986, 986, 986, 986, 986, 986, 986, 985, 985, 983, 983, 983, 982, 982
951, 951, 953, 954, 954, 956, 956, 959, 962, 962, 965, 968, 968, 971, 977, 977, 980, 983, 983, 986, 986, 991, 991, 991, 993, 996, 996, 999, 1004, 1004, 1007, 1009, 1009, 1010, 1010, 1014, 1015, 1015, 1017, 1017, 1015, 1015, 1015, 1014, 1014, 1014, 1014, 1014, 1014, 1012, 1012, 1012, 1012, 1010, 1009, 1009, 1005, 997, 997, 986, 986, 977, 977, 0, 957, 957, 950, 950, 941, 934, 934, 931, 929, 929, 929, 929, 929, 927, 927, 927, 926, 926, 926, 926, 926, 926, 927, 927, 929, 930, 930, 931, 931, 931, 931, 931, 934, 934, 934, 936, 937, 937, 938, 944, 944, 950, 959, 959, 965, 965, 972, 980, 980, 988, 994, 994, 1002, 1005, 1005, 1009, 1010, 1010, 1014, 1014, 1014, 1014, 1012, 1010, 1010, 1009, 1005, 1005, 1001, 1001, 994, 989, 989, 989, 986, 986, 985, 985, 982, 982, 0, 0, 0, 0, 0, 0, 0, 0, 799, 798, 798, 798, 799, 800, 799, 799, 799, 799, 799, 799, 799, 799, 798, 798, 798, 796, 796, 796, 795, 795, 794, 794, 793, 793, 793, 793, 793, 793, 793, 793, 793, 794, 794, 794, 794, 794, 794, 795, 795, 795, 795, 794, 794, 794, 793, 793, 793, 793, 793, 793, 794, 795, 795, 795, 797, 797, 797, 798, 798, 800, 800, 801, 802, 802, 803, 803, 803, 803, 802, 802, 802, 802, 801, 801, 800, 800, 800, 799, 799, 798, 798, 798, 798, 798, 798, 798, 798, 798, 797, 797, 797, 797, 797, 797, 797, 797, 797, 797, 796, 795, 795, 794, 794, 794, 793, 793, 792, 792, 792, 792, 792, 792, 792, 793, 793, 793, 795, 795, 796, 797, 797, 798, 798, 799, 799, 799, 799, 799, 799, 799, 799, 798, 798, 797, 796, 796, 795, 795, 794, 794, 794, 793, 793, 793, 793, 793, 793, 793, 793, 793, 793, 793, 793, 793, 793, 792, 792, 792, 792, 793, 793, 793, 794, 794, 794, 794, 795, 795, 795, 795, 796, 796, 796, 796, 796, 796, 796, 795, 795, 795, 794, 794, 793, 793, 792, 792, 792, 791, 791, 791, 791, 791, 791, 792, 792, 792, 792, 793, 793, 793, 793, 793, 793, 792, 792, 792, 792, 792, 792, 792, 792, 792, 792, 793, 793, 793, 793, 793, 793, 793, 794, 795, 795, 794, 794, 794, 794, 794, 794, 794, 793, 793, 793, 792, 792, 792, 791, 791, 791, 790, 790, 790, 789, 789, 789, 789, 788, 788, 788, 788, 788, 788, 787, 787, 787, 787, 787, 787, 787, 787, 787, 787, 787, 788, 788, 788, 787, 787, 787, 787, 787, 787, 787, 786, 786, 786, 786, 786, 786, 786, 786, 786, 786, 786, 786, 787, 787, 787, 787, 787, 787, 787, 787, 786, 786, 786, 786, 786, 786, 786, 786, 785, 785, 784, 784, 783, 782, 782, 782, 781, 781, 780, 780, 780, 779, 779, 778, 778, 778, 778, 779, 779, 779, 779, 779, 780, 781, 781, 782, 783, 783, 784, 784, 784, 785, 785, 785, 786, 784, 784, 784, 784, 784, 784, 783, 783, 783, 969, 971, 972, 972, 974, 974, 974, 975, 975, 977, 977, 977, 977, 977, 977, 977, 977, 977, 977, 977, 978, 980, 980, 980, 980, 982, 982, 982, 982, 982, 982, 982, 982, 982, 982, 982, 982, 982, 982, 982, 980, 980, 980, 980, 980, 980, 980, 980, 978, 978, 978, 978, 980, 980, 980, 980, 982, 982, 982, 982, 982, 982, 982, 983, 985, 985, 985, 985, 985, 985, 985, 985, 985, 985, 986, 986, 986, 986, 986, 986, 986, 986, 986, 986, 985, 985, 983, 983, 983, 982, 982
950, 950, 951, 953, 953, 954, 954, 957, 960, 960, 965, 968, 968, 971, 975, 975, 980, 983, 983, 986, 986, 991, 991, 991, 993, 996, 996, 999, 1004, 1004, 1007, 1009, 1009, 1010, 1010, 1012, 1014, 1014, 1015, 1015, 1015, 1015, 1015, 1014, 1014, 1014, 1012, 1012, 1012, 1012, 1012, 1010, 1010, 1010, 1007, 1007, 1004, 996, 996, 986, 986, 977, 977, 0, 957, 957, 950, 943, 941, 934, 934, 931, 929, 929, 929, 929, 929, 927, 927, 927, 926, 926, 926, 926, 926, 926, 927, 927, 929, 930, 930, 931, 931, 931, 931, 931, 933, 934, 934, 936, 937, 937, 938, 944, 944, 950, 957, 957, 965, 965, 972, 980, 980, 988, 994, 994, 1001, 1005, 1005, 1007, 1010, 1010, 1012, 1012, 1012, 1012, 1012, 1010, 1010, 1007, 1005, 1005, 1001, 1001, 996, 989, 989, 989, 988, 988, 986, 986, 983, 983, 0, 0, 0, 0, 0, 0, 0, 0, 799, 799, 799, 799, 799, 799, 799, 799, 799, 799, 799, 798, 798, 798, 798, 798, 797, 796, 796, 795, 795, 795, 794, 794, 793, 793, 793, 793, 793, 794, 794, 794, 794, 794, 794, 794, 794, 794, 794, 795, 795, 795, 795, 794, 794, 794, 794, 793, 793, 793, 793, 793, 794, 795, 795, 795, 797, 797, 797, 798, 798, 800, 800, 801, 802, 802, 803, 803, 803, 803, 803, 803, 803, 802, 801, 801, 800, 800, 800, 799, 799, 798, 798, 798, 798, 798, 798, 798, 798, 798, 797, 797, 797, 797, 797, 797, 797, 797, 797, 797, 796, 795, 795, 794, 794, 794, 793, 793, 792, 792, 792, 792, 792, 792, 793, 793, 793, 794, 795, 795, 796, 797, 797, 798, 798, 799, 799, 799, 800, 800, 800, 800, 799, 798, 798, 797, 796, 796, 795, 795, 794, 794, 794, 793, 793, 793, 793, 793, 793, 793, 793, 793, 793, 793, 793, 793, 793, 793, 793, 793, 793, 794, 794, 794, 794, 794, 795, 795, 795, 795, 795, 796, 797, 797, 797, 797, 797, 797, 796, 796, 796, 795, 794, 794, 794, 794, 793, 792, 792, 792, 792, 792, 792, 792, 792, 792, 792, 792, 792, 793, 793, 793, 793, 793, 793, 792, 792, 792, 792, 792, 792, 792, 792, 792, 792, 793, 793, 793, 793, 793, 794, 794, 794, 795, 795, 795, 795, 795, 795, 795, 794, 794, 794, 793, 793, 793, 792, 792, 792, 792, 791, 791, 791, 791, 790, 790, 790, 790, 789, 788, 788, 788, 788, 788, 787, 787, 787, 787, 787, 787, 787, 787, 787, 787, 787, 788, 788, 788, 787, 787, 787, 787, 787, 787, 787, 786, 786, 786, 786, 786, 786, 786, 786, 786, 786, 786, 786, 787, 787, 787, 787, 787, 787, 787, 787, 786, 786, 786, 786, 786, 786, 786, 786, 785, 785, 784, 784, 783, 782, 782, 782, 781, 781, 780, 780, 779, 778, 778, 778, 778, 778, 778, 778, 778, 779, 779, 779, 780, 781, 781, 782, 783, 783, 784, 784, 784, 785, 785, 785, 786, 784, 784, 784, 784, 784, 783, 783, 783, 783, 969, 971, 972, 972, 974, 974, 974, 975, 975, 977, 977, 977, 977, 977, 977, 977, 977, 977, 977, 977, 978, 980, 980, 980, 980, 980, 980, 980, 980, 982, 982, 982, 982, 982, 982, 982, 980, 980, 980, 980, 980, 980, 980, 980, 978, 978, 978, 978, 978, 978, 978, 978, 980, 980, 980, 980, 980, 980, 982, 982, 982, 982, 982, 983, 985, 985, 985, 985, 985, 985, 985, 986, 986, 986, 988, 988, 988, 988, 988, 988, 988, 986, 986, 986, 985, 985, 983, 983, 983, 980, 980
948, 948, 950, 951, 951, 954, 954, 956, 960, 960, 965, 968, 968, 971, 975, 975, 980, 983, 983, 986, 991, 991, 991, 991, 993, 996, 996, 999, 1002, 1002, 1005, 1007, 1007, 1010, 1010, 1012, 1014, 1014, 1015, 1015, 1014, 1014, 1014, 1012, 1012, 1012, 1012, 1012, 1012, 1010, 1010, 1010, 1010, 1009, 1005, 1005, 1002, 996, 996, 986, 986, 977, 968, 968, 959, 959, 951, 943, 943, 936, 936, 931, 930, 930, 929, 929, 929, 929, 929, 927, 926, 926, 926, 926, 926, 926, 927, 927, 929, 930, 930, 931, 931, 931, 931, 931, 933, 934, 934, 936, 937, 937, 938, 944, 944, 950, 957, 957, 966, 972, 972, 980, 980, 988, 994, 994, 1001, 1005, 1005, 1007, 1010, 1010, 1012, 1012, 1012, 1012, 1012, 1010, 1010, 1007, 1005, 1005, 1001, 1001, 996, 991, 991, 991, 989, 989, 988, 988, 985, 985, 0, 0, 0, 0, 0, 0, 0, 0, 799, 799, 799, 799, 799, 799, 799, 799, 799, 799, 799, 798, 798, 798, 798, 798, 797, 796, 796, 795, 795, 795, 794, 794, 793, 793, 793, 793, 794, 794, 794, 794, 794, 794, 794, 794, 795, 795, 795, 795, 795, 795, 795, 795, 794, 794, 794, 794, 794, 794, 794, 794, 795, 795, 795, 796, 797, 797, 797, 799, 799, 800, 800, 801, 802, 802, 803, 803, 803, 803, 803, 803, 803, 803, 802, 802, 801, 800, 800, 800, 800, 799, 799, 799, 798, 798, 798, 798, 798, 798, 798, 798, 797, 797, 797, 797, 797, 797, 797, 797, 796, 795, 795, 794, 794, 794, 793, 793, 792, 792, 792, 792, 792, 792, 792, 793, 793, 794, 795, 795, 796, 797, 797, 798, 798, 799, 799, 799, 800, 800, 800, 800, 799, 798, 798, 797, 796, 796, 794, 794, 794, 793, 793, 793, 793, 793, 793, 793, 793, 793, 793, 793, 793, 793, 793, 793, 793, 793, 793, 793, 793, 794, 794, 794, 794, 794, 795, 795, 795, 795, 795, 796, 797, 797, 797, 797, 797, 797, 796, 796, 796, 795, 794, 794, 794, 794, 793, 792, 792, 792, 792, 792, 792, 792, 792, 792, 792, 792, 792, 793, 793, 793, 793, 793, 793, 792, 792, 792, 792, 792, 792, 792, 792, 792, 792, 793, 793, 793, 793, 793, 794, 794, 794, 795, 795, 795, 795, 795, 795, 795, 794, 794, 794, 793, 793, 793, 792, 792, 792, 792, 791, 791, 791, 791, 790, 790, 790, 790, 789, 788, 788, 788, 788, 788, 787, 787, 787, 787, 787, 787, 787, 788, 788, 788, 788, 788, 788, 788, 788, 788, 787, 787, 787, 787, 787, 787, 787, 787, 787, 787, 787, 787, 787, 787, 787, 787, 787, 788, 788, 788, 788, 788, 788, 788, 787, 787, 787, 787, 787, 787, 787, 787, 786, 786, 786, 785, 785, 783, 783, 783, 782, 781, 781, 779, 779, 779, 778, 778, 778, 778, 778, 778, 778, 778, 779, 780, 780, 781, 782, 782, 782, 783, 783, 784, 784, 785, 785, 785, 786, 786, 785, 785, 784, 784, 784, 783, 783, 783, 783, 969, 969, 972, 972, 972, 972, 974, 975, 975, 977, 977, 977, 977, 977, 977, 977, 977, 977, 978, 978, 978, 980, 980, 980, 980, 980, 980, 980, 980, 982, 982, 982, 982, 982, 982, 982, 980, 980, 980, 980, 980, 980, 980, 980, 978, 978, 978, 978, 978, 978, 978, 978, 980, 980, 980, 980, 980, 980, 982, 982, 982, 983, 983, 983, 985, 985, 985, 985, 986, 986, 986, 986, 988, 988, 988, 988, 988, 988, 988, 988, 988, 988, 986, 986, 985, 985, 983, 983, 983, 980, 980
948, 948, 950, 951, 951, 954, 954, 956, 960, 960, 965, 968, 968, 971, 975, 975, 980, 983, 983, 986, 991, 991, 991, 991, 993, 996, 996, 999, 1002, 1002, 1005, 1007, 1007, 1010, 1010, 1012, 1014, 1014, 1015, 1015, 1014, 1014, 1014, 1012, 1012, 1012, 1012, 1012, 1012, 1010, 1010, 1010, 1010, 1009, 1005, 1005, 1002, 996, 996, 986, 986, 977, 968, 968, 960, 960, 951, 943, 943, 937, 937, 933, 930, 930, 929, 929, 929, 929, 929, 927, 926, 926, 926, 926, 926, 926, 927, 927, 929, 930, 930, 931, 931, 931, 931, 931, 933, 934, 934, 936, 937, 937, 938, 944, 944, 950, 957, 957, 966, 972, 972, 980, 980, 988, 994, 994, 1001, 1004, 1004, 1007, 1009, 1009, 1010, 1010, 1010, 1010, 1009, 1009, 1009, 1007, 1005, 1005, 1001, 1001, 996, 991, 991, 991, 989, 989, 988, 988, 985, 985, 0, 0, 0, 0, 0, 0, 0, 0, 799, 799, 799, 799, 799, 799, 799, 799, 798, 798, 798, 798, 798, 798, 798, 798, 797, 796, 796, 795, 795, 795, 794, 794, 793, 793, 793, 793, 794, 794, 794, 794, 794, 794, 794, 794, 795, 795, 795, 795, 795, 795, 795, 795, 794, 794, 794, 794, 794, 794, 794, 794, 795, 795, 795, 796, 797, 797, 797, 799, 799, 799, 799, 800, 801, 801, 802, 803, 803, 803, 803, 803, 803, 803, 802, 802, 801, 800, 800, 800, 800, 799, 799, 799, 798, 798, 798, 798, 798, 798, 798, 798, 797, 797, 797, 797, 797, 797, 797, 797, 796, 795, 795, 794, 794, 794, 793, 793, 792, 792, 792, 792, 792, 792, 792, 793, 793, 794, 795, 795, 796, 798, 798, 798, 798, 800, 800, 800, 800, 800, 800, 799, 799, 797, 797, 796, 795, 795, 794, 794, 794, 793, 793, 793, 793, 793, 792, 792, 793, 793, 793, 793, 793, 793, 793, 793, 793, 793, 793, 793, 794, 794, 794, 794, 795, 795, 795, 795, 796, 796, 796, 796, 797, 797, 797, 797, 797, 797, 796, 796, 796, 796, 795, 795, 794, 794, 794, 793, 793, 792, 792, 792, 792, 792, 792, 792, 792, 792, 792, 793, 793, 793, 793, 793, 793, 792, 792, 792, 792, 792, 792, 792, 792, 792, 792, 793, 793, 793, 793, 793, 794, 794, 795, 795, 795, 795, 795, 795, 795, 795, 794, 794, 794, 794, 794, 793, 793, 793, 792, 792, 792, 792, 792, 791, 791, 791, 790, 790, 790, 789, 789, 789, 788, 788, 788, 788, 787, 787, 787, 787, 787, 788, 788, 788, 788, 788, 788, 788, 788, 788, 788, 788, 788, 788, 788, 788, 788, 788, 788, 788, 789, 789, 789, 789, 789, 789, 789, 789, 789, 789, 789, 789, 789, 789, 788, 788, 788, 788, 788, 787, 787, 787, 787, 786, 786, 785, 785, 784, 783, 783, 782, 781, 781, 779, 779, 779, 778, 778, 778, 778, 778, 778, 778, 778, 779, 780, 780, 781, 782, 782, 783, 784, 784, 784, 784, 785, 785, 785, 786, 786, 785, 785, 784, 784, 784, 783, 783, 783, 783, 969, 969, 972, 972, 972, 972, 974, 975, 975, 977, 978, 977, 977, 977, 977, 978, 978, 978, 978, 978, 978, 980, 980, 980, 980, 980, 980, 980, 980, 980, 980, 982, 982, 982, 982, 982, 980, 980, 980, 980, 980, 980, 980, 978, 978, 978, 978, 978, 978, 978, 978, 978, 978, 980, 980, 980, 980, 980, 982, 982, 982, 983, 983, 983, 985, 985, 985, 985, 986, 986, 986, 986, 988, 988, 988, 988, 988, 988, 988, 988, 988, 988, 986, 986, 985, 985, 983, 983, 983, 980, 980
947, 947, 947, 950, 950, 953, 953, 954, 959, 959, 963, 966, 966, 971, 975, 975, 980, 983, 983, 986, 991, 991, 991, 991, 993, 996, 996, 999, 1002, 1002, 1005, 1007, 1007, 1010, 1010, 1012, 1012, 1012, 1014, 1015, 1014, 1014, 1014, 1012, 1012, 1012, 1012, 1012, 1010, 1010, 1010, 1009, 1009, 1007, 1005, 1005, 1002, 994, 994, 985, 985, 975, 966, 966, 959, 959, 951, 943, 943, 937, 937, 933, 930, 930, 929, 929, 929, 929, 929, 927, 926, 926, 926, 926, 926, 926, 927, 927, 927, 930, 930, 930, 930, 930, 931, 931, 933, 934, 934, 936, 937, 937, 938, 944, 944, 950, 959, 959, 966, 974, 974, 980, 980, 988, 994, 994, 1001, 1004, 1004, 1005, 1007, 1007, 1009, 1009, 1009, 1009, 1009, 1009, 1009, 1007, 1005, 1005, 1001, 1001, 997, 994, 994, 993, 991, 991, 989, 989, 988, 988, 0, 0, 0, 0, 0, 0, 0, 0, 799, 799, 799, 799, 799, 799, 799, 799, 798, 798, 798, 798, 798, 798, 798, 798, 797, 796, 796, 795, 795, 795, 795, 795, 794, 794, 794, 794, 794, 794, 794, 795, 795, 795, 795, 795, 795, 795, 795, 796, 796, 795, 795, 795, 795, 795, 795, 795, 795, 795, 795, 795, 795, 796, 796, 797, 797, 797, 798, 799, 799, 799, 799, 800, 801, 801, 802, 803, 803, 803, 803, 803, 803, 803, 802, 802, 802, 801, 801, 800, 800, 799, 799, 799, 798, 798, 798, 798, 798, 798, 798, 798, 798, 797, 797, 797, 797, 797, 797, 797, 796, 795, 795, 795, 795, 794, 793, 793, 792, 792, 792, 792, 793, 793, 793, 793, 793, 794, 795, 795, 796, 798, 798, 799, 799, 800, 800, 800, 800, 800, 800, 799, 799, 797, 797, 796, 795, 795, 794, 794, 794, 793, 793, 793, 793, 793, 792, 792, 793, 793, 793, 793, 793, 794, 794, 794, 794, 794, 794, 794, 794, 795, 795, 795, 795, 795, 796, 796, 796, 796, 796, 797, 797, 797, 797, 797, 797, 797, 796, 796, 796, 796, 795, 795, 794, 794, 794, 794, 794, 793, 793, 793, 793, 793, 793, 792, 792, 792, 792, 793, 793, 793, 793, 793, 793, 792, 792, 792, 792, 792, 792, 792, 792, 792, 792, 792, 792, 793, 793, 793, 794, 794, 795, 795, 795, 795, 795, 795, 795, 795, 794, 794, 794, 794, 794, 793, 793, 793, 792, 792, 792, 792, 792, 791, 791, 791, 790, 790, 790, 789, 789, 789, 788, 788, 788, 788, 787, 787, 787, 787, 787, 788, 788, 788, 788, 788, 788, 788, 788, 788, 788, 788, 788, 788, 788, 788, 788, 788, 788, 788, 789, 789, 789, 789, 789, 789, 789, 789, 789, 789, 789, 789, 789, 789, 788, 788, 788, 788, 788, 787, 787, 787, 787, 786, 786, 785, 785, 784, 783, 783, 782, 781, 781, 779, 779, 779, 778, 778, 778, 778, 778, 778, 778, 778, 779, 780, 780, 781, 782, 782, 783, 784, 784, 784, 784, 785, 785, 785, 786, 786, 785, 785, 784, 784, 784, 783, 783, 783, 783, 783, 783, 971, 971, 972, 972, 974, 975, 975, 977, 978, 977, 977, 977, 977, 978, 978, 978, 978, 978, 978, 980, 980, 980, 980, 980, 980, 980, 980, 980, 980, 982, 982, 982, 982, 980, 980, 980, 980, 980, 980, 978, 978, 978, 978, 978, 978, 978, 978, 978, 978, 978, 978, 980, 980, 980, 982, 982, 982, 982, 982, 983, 983, 983, 983, 983, 985, 985, 985, 986, 986, 988, 988, 988, 988, 988, 988, 989, 988, 988, 988, 988, 986, 986, 985, 985, 985, 982, 982, 980, 980
946, 946, 946, 947, 947, 950, 950, 953, 957, 957, 960, 965, 965, 969, 975, 975, 980, 983, 983, 986, 991, 991, 991, 991, 993, 996, 996, 999, 1002, 1002, 1005, 1007, 1007, 1010, 1010, 1010, 1012, 1012, 1014, 1015, 1014, 1014, 1014, 1012, 1012, 1012, 1012, 1012, 1010, 1010, 1010, 1009, 1009, 1007, 1005, 1005, 1002, 994, 994, 985, 985, 975, 966, 966, 959, 959, 951, 943, 943, 937, 937, 933, 930, 930, 930, 930, 929, 929, 929, 927, 927, 927, 926, 926, 926, 926, 927, 927, 927, 930, 930, 930, 930, 930, 931, 931, 933, 934, 934, 936, 937, 937, 940, 944, 944, 951, 959, 959, 966, 974, 974, 980, 980, 988, 994, 994, 1001, 1004, 1004, 1005, 1007, 1007, 1009, 1009, 1009, 1009, 1009, 1009, 1009, 1007, 1005, 1005, 1002, 1002, 999, 996, 996, 994, 994, 994, 993, 993, 991, 991, 0, 0, 0, 0, 0, 0, 0, 0, 799, 799, 799, 799, 799, 799, 799, 799, 798, 798, 798, 798, 798, 798, 798, 798, 797, 796, 796, 796, 795, 795, 795, 795, 795, 795, 795, 795, 795, 795, 795, 795, 795, 795, 796, 796, 796, 796, 796, 796, 797, 796, 796, 795, 795, 795, 795, 795, 795, 795, 795, 795, 795, 796, 796, 797, 797, 797, 798, 798, 798, 799, 799, 800, 801, 801, 802, 802, 802, 802, 802, 802, 803, 803, 802, 802, 802, 801, 801, 800, 800, 799, 799, 799, 798, 798, 798, 798, 798, 798, 798, 798, 798, 797, 797, 797, 797, 797, 797, 797, 796, 795, 795, 795, 795, 794, 793, 793, 792, 792, 792, 792, 793, 793, 793, 793, 793, 794, 795, 795, 796, 798, 798, 799, 799, 800, 800, 800, 800, 800, 799, 799, 798, 797, 797, 796, 795, 795, 794, 794, 793, 793, 793, 793, 792, 792, 792, 792, 793, 793, 793, 793, 793, 794, 794, 794, 794, 794, 794, 794, 794, 795, 795, 795, 795, 795, 796, 796, 796, 796, 796, 797, 797, 797, 797, 797, 797, 797, 796, 796, 796, 796, 795, 795, 794, 794, 794, 794, 794, 793, 793, 793, 793, 793, 793, 792, 792, 792, 792, 793, 793, 793, 793, 792, 792, 792, 792, 792, 792, 792, 792, 792, 792, 792, 792, 792, 792, 793, 793, 793, 794, 794, 794, 795, 795, 795, 795, 795, 795, 795, 794, 794, 794, 794, 794, 793, 793, 793, 793, 793, 793, 793, 793, 792, 792, 792, 791, 791, 791, 790, 790, 789, 789, 789, 788, 788, 788, 788, 788, 788, 788, 788, 788, 788, 788, 789, 789, 789, 789, 789, 789, 789, 790, 789, 789, 789, 789, 789, 789, 789, 790, 790, 790, 790, 790, 790, 790, 790, 790, 790, 790, 790, 790, 790, 789, 789, 789, 788, 788, 788, 788, 788, 787, 787, 787, 785, 785, 785, 783, 783, 782, 781, 781, 780, 780, 779, 778, 778, 778, 778, 778, 778, 779, 779, 780, 780, 780, 781, 782, 782, 783, 784, 784, 784, 784, 785, 786, 786, 786, 786, 785, 785, 785, 785, 785, 784, 784, 784, 783, 783, 783, 971, 971, 972, 972, 974, 975, 975, 977, 978, 978, 978, 978, 978, 978, 978, 978, 978, 978, 980, 980, 980, 980, 980, 980, 980, 980, 980, 980, 980, 982, 982, 982, 982, 980, 980, 980, 980, 980, 980, 978, 978, 978, 978, 978, 978, 978, 978, 978, 978, 978, 978, 980, 980, 980, 982, 982, 982, 982, 982, 983, 983, 983, 983, 983, 985, 985, 985, 986, 986, 988, 988, 988, 988, 989, 989, 989, 988, 988, 988, 988, 986, 986, 985, 985, 985, 982, 982, 980, 980
946, 946, 946, 947, 947, 950, 950, 953, 957, 957, 960, 965, 965, 969, 975, 975, 980, 983, 983, 988, 991, 991, 993, 993, 994, 997, 997, 1001, 1004, 1004, 1005, 1007, 1007, 1010, 1010, 1010, 1012, 1012, 1014, 1014, 1014, 1012, 1012, 1012, 1012, 1012, 1012, 1012, 1010, 1009, 1009, 1009, 1009, 1007, 1004, 1004, 1001, 993, 993, 985, 985, 975, 966, 966, 959, 959, 951, 943, 943, 937, 937, 933, 930, 930, 930, 930, 929, 929, 929, 927, 927, 927, 926, 926, 926, 926, 927, 927, 927, 930, 930, 930, 930, 930, 931, 931, 933, 934, 934, 936, 937, 937, 940, 944, 944, 951, 959, 959, 966, 974, 974, 980, 980, 988, 994, 994, 1001, 1002, 1002, 1005, 1005, 1005, 1007, 1007, 1007, 1009, 1009, 1009, 1009, 1007, 1005, 1005, 1002, 1002, 999, 996, 996, 994, 994, 994, 993, 993, 991, 991, 0, 0, 0, 0, 0, 0, 0, 0, 799, 799, 799, 799, 799, 799, 799, 799, 798, 798, 798, 798, 798, 798, 798, 798, 797, 796, 796, 796, 795, 795, 795, 795, 795, 795, 795, 795, 795, 795, 795, 795, 795, 795, 796, 796, 796, 796, 796, 796, 797, 796, 796, 795, 795, 795, 795, 795, 795, 795, 795, 795, 795, 796, 796, 797, 798, 798, 798, 798, 798, 799, 799, 800, 801, 801, 802, 802, 802, 802, 802, 802, 802, 802, 802, 802, 802, 802, 802, 801, 801, 800, 799, 799, 799, 798, 798, 798, 798, 798, 798, 798, 798, 797, 797, 797, 797, 797, 797, 797, 796, 796, 796, 795, 795, 794, 794, 794, 793, 793, 793, 793, 793, 793, 793, 794, 794, 794, 795, 795, 796, 798, 798, 799, 799, 800, 800, 800, 800, 800, 799, 798, 798, 797, 797, 796, 795, 795, 794, 794, 793, 793, 793, 793, 792, 792, 792, 792, 793, 793, 793, 793, 793, 794, 794, 794, 794, 794, 794, 794, 795, 795, 795, 795, 795, 795, 796, 796, 796, 796, 796, 797, 797, 797, 797, 797, 797, 797, 796, 796, 796, 796, 796, 796, 795, 795, 794, 794, 794, 794, 793, 793, 793, 793, 793, 792, 792, 792, 792, 793, 793, 793, 793, 792, 792, 792, 792, 792, 792, 792, 792, 792, 792, 792, 792, 792, 792, 793, 793, 793, 794, 794, 794, 795, 795, 795, 795, 795, 795, 795, 795, 795, 794, 794, 794, 793, 793, 793, 793, 793, 793, 793, 793, 793, 792, 792, 792, 792, 791, 791, 791, 790, 789, 789, 789, 789, 789, 788, 788, 788, 788, 788, 788, 788, 788, 789, 789, 789, 790, 790, 790, 790, 790, 790, 791, 791, 790, 790, 790, 791, 791, 791, 792, 792, 792, 792, 791, 791, 791, 791, 791, 791, 791, 791, 790, 790, 790, 789, 789, 788, 788, 788, 788, 787, 787, 786, 786, 785, 784, 784, 783, 781, 781, 780, 780, 779, 779, 779, 778, 778, 778, 778, 779, 779, 780, 780, 780, 781, 782, 782, 783, 784, 784, 784, 784, 785, 786, 786, 786, 786, 785, 785, 785, 785, 785, 784, 784, 784, 783, 783, 783, 971, 971, 972, 972, 974, 975, 975, 977, 978, 978, 978, 978, 978, 978, 978, 978, 978, 978, 980, 980, 980, 980, 980, 980, 980, 980, 980, 980, 980, 982, 982, 982, 982, 980, 980, 980, 980, 980, 980, 978, 978, 978, 978, 978, 978, 978, 978, 978, 978, 978, 978, 980, 980, 980, 982, 982, 982, 982, 982, 983, 983, 983, 983, 983, 985, 985, 985, 986, 986, 988, 988, 988, 988, 988, 988, 988, 988, 988, 988, 986, 986, 986, 985, 985, 983, 982, 982, 980, 980
943, 943, 943, 944, 944, 947, 947, 950, 954, 954, 959, 963, 963, 969, 975, 975, 980, 983, 983, 988, 991, 991, 993, 993, 994, 997, 997, 1001, 1004, 1004, 1005, 1007, 1007, 1010, 1010, 1010, 1012, 1012, 1014, 1014, 1014, 1012, 1012, 1012, 1012, 1012, 1010, 1010, 1009, 1009, 1009, 1007, 1007, 1005, 1004, 1004, 999, 993, 993, 983, 983, 975, 966, 966, 959, 959, 951, 943, 943, 937, 937, 933, 930, 930, 930, 930, 929, 927, 927, 927, 927, 927, 926, 926, 926, 926, 927, 927, 929, 930, 930, 931, 931, 931, 933, 933, 933, 934, 934, 936, 937, 937, 940, 946, 946, 951, 960, 960, 966, 974, 974, 980, 980, 988, 994, 994, 999, 1002, 1002, 1004, 1005, 1005, 1007, 1007, 1007, 1007, 1007, 1007, 1007, 1007, 1005, 1005, 1004, 1004, 1001, 999, 999, 997, 996, 996, 996, 996, 996, 0, 0, 0, 0, 0, 0, 0, 0, 0, 799, 799, 799, 799, 799, 799, 799, 799, 798, 798, 798, 798, 798, 798, 798, 798, 798, 797, 797, 797, 797, 797, 797, 797, 796, 796, 796, 796, 796, 796, 796, 797, 797, 797, 797, 797, 797, 797, 797, 797, 798, 796, 796, 796, 796, 796, 796, 796, 796, 796, 797, 797, 797, 797, 797, 798, 799, 799, 799, 799, 799, 800, 800, 800, 801, 801, 802, 802, 802, 802, 802, 802, 802, 802, 802, 802, 802, 802, 802, 801, 801, 800, 799, 799, 799, 799, 799, 799, 799, 798, 798, 798, 798, 798, 798, 797, 797, 797, 797, 797, 797, 796, 796, 795, 795, 795, 794, 794, 794, 793, 793, 793, 794, 794, 794, 794, 794, 795, 796, 796, 797, 798, 798, 799, 799, 800, 800, 800, 800, 800, 799, 798, 798, 797, 797, 796, 795, 795, 794, 794, 793, 793, 793, 793, 792, 792, 792, 793, 793, 793, 793, 793, 794, 794, 794, 794, 795, 794, 794, 794, 795, 795, 795, 795, 795, 795, 796, 796, 796, 796, 796, 796, 797, 797, 797, 797, 797, 797, 796, 796, 796, 796, 796, 796, 795, 795, 794, 794, 794, 794, 793, 793, 793, 793, 793, 792, 792, 792, 792, 793, 793, 793, 793, 792, 792, 792, 792, 792, 792, 792, 792, 791, 791, 791, 792, 792, 792, 792, 793, 793, 793, 793, 794, 794, 794, 794, 794, 794, 794, 794, 794, 794, 794, 793, 793, 793, 793, 793, 792, 792, 792, 792, 792, 792, 792, 792, 792, 792, 791, 791, 791, 790, 789, 789, 789, 789, 789, 788, 788, 788, 788, 788, 788, 788, 788, 789, 789, 789, 790, 790, 790, 790, 790, 790, 791, 791, 790, 790, 790, 791, 791, 791, 792, 792, 792, 792, 791, 791, 791, 791, 791, 791, 791, 791, 790, 790, 790, 789, 789, 788, 788, 788, 788, 787, 787, 786, 786, 785, 784, 784, 783, 781, 781, 780, 780, 779, 779, 779, 779, 779, 779, 779, 779, 779, 780, 781, 781, 781, 783, 783, 783, 784, 784, 785, 785, 786, 786, 786, 786, 786, 786, 786, 785, 785, 785, 784, 784, 784, 784, 784, 971, 972, 972, 972, 972, 974, 977, 977, 977, 978, 978, 980, 980, 980, 980, 980, 980, 980, 980, 980, 980, 980, 980, 980, 982, 982, 982, 982, 982, 982, 982, 982, 982, 982, 980, 980, 980, 978, 978, 978, 978, 978, 978, 978, 978, 978, 978, 978, 978, 978, 978, 978, 980, 980, 980, 982, 982, 982, 982, 982, 983, 983, 983, 983, 983, 985, 985, 985, 986, 986, 986, 986, 986, 988, 988, 988, 988, 988, 986, 986, 986, 986, 986, 985, 985, 983, 982, 982, 980, 980
943, 943, 943, 944, 944, 947, 947, 950, 954, 954, 959, 963, 963, 969, 975, 975, 980, 983, 983, 988, 993, 993, 994, 994, 996, 999, 999, 1002, 1004, 1004, 1007, 1009, 1009, 1010, 1010, 1010, 1012, 1012, 1014, 1014, 1014, 1012, 1012, 1012, 1012, 1012, 1010, 1010, 1009, 1009, 1009, 1007, 1007, 1005, 1004, 1004, 999, 993, 993, 983, 983, 975, 968, 968, 959, 959, 951, 944, 944, 937, 937, 933, 930, 930, 930, 930, 929, 927, 927, 927, 927, 927, 927, 927, 927, 927, 927, 927, 929, 930, 930, 931, 933, 933, 933, 933, 934, 936, 936, 937, 938, 938, 941, 946, 946, 953, 960, 960, 966, 974, 974, 980, 980, 988, 994, 994, 999, 1002, 1002, 1004, 1005, 1005, 1007, 1007, 1007, 1007, 1007, 1007, 1007, 1007, 1005, 1005, 1004, 1004, 1002, 1001, 1001, 1001, 999, 999, 997, 997, 0, 0, 0, 0, 0, 0, 0, 0, 0, 0, 798, 798, 798, 798, 798, 799, 799, 799, 798, 798, 798, 798, 798, 798, 798, 798, 798, 797, 797, 797, 797, 797, 797, 797, 796, 796, 796, 796, 796, 796, 796, 797, 797, 797, 797, 797, 797, 797, 797, 797, 798, 796, 796, 796, 796, 796, 796, 796, 796, 796, 797, 797, 797, 797, 797, 798, 799, 799, 799, 799, 799, 799, 799, 799, 800, 800, 801, 801, 801, 801, 801, 802, 802, 802, 802, 802, 802, 802, 802, 801, 801, 800, 799, 799, 799, 799, 799, 798, 798, 798, 798, 798, 797, 797, 797, 797, 797, 797, 797, 797, 797, 796, 796, 795, 795, 795, 794, 794, 794, 793, 793, 793, 794, 794, 794, 794, 794, 795, 796, 796, 797, 798, 798, 799, 799, 800, 800, 800, 800, 800, 799, 798, 798, 797, 797, 796, 795, 795, 794, 794, 793, 793, 793, 793, 792, 792, 792, 793, 793, 793, 793, 793, 794, 794, 794, 794, 795, 795, 795, 795, 795, 795, 795, 795, 795, 795, 796, 796, 796, 796, 796, 796, 797, 797, 797, 797, 797, 797, 797, 796, 796, 796, 796, 796, 795, 795, 795, 794, 794, 794, 793, 793, 793, 793, 793, 792, 792, 792, 792, 793, 793, 793, 793, 792, 792, 792, 792, 792, 792, 792, 792, 791, 791, 791, 791, 792, 792, 792, 792, 792, 793, 793, 794, 794, 794, 794, 794, 794, 793, 793, 793, 793, 793, 793, 793, 793, 792, 792, 792, 792, 792, 792, 792, 792, 792, 792, 792, 792, 792, 791, 791, 791, 790, 790, 790, 790, 789, 789, 789, 789, 788, 788, 788, 788, 788, 789, 789, 789, 790, 790, 790, 790, 791, 791, 792, 792, 792, 792, 792, 792, 792, 792, 793, 793, 793, 793, 793, 793, 793, 792, 792, 792, 791, 791, 791, 790, 790, 790, 790, 789, 789, 789, 788, 788, 788, 787, 787, 785, 784, 784, 783, 782, 782, 780, 780, 780, 779, 779, 779, 779, 779, 779, 780, 780, 780, 781, 781, 782, 783, 783, 783, 785, 785, 785, 785, 786, 786, 786, 787, 787, 786, 786, 786, 785, 785, 785, 785, 785, 784, 784, 971, 972, 972, 974, 974, 974, 977, 977, 978, 978, 978, 980, 980, 980, 982, 982, 982, 982, 982, 982, 982, 982, 982, 982, 982, 982, 982, 982, 982, 982, 982, 982, 982, 982, 980, 980, 980, 978, 978, 978, 978, 978, 978, 978, 978, 978, 978, 978, 978, 978, 978, 980, 980, 980, 980, 982, 982, 982, 982, 983, 983, 983, 983, 983, 983, 985, 985, 985, 986, 986, 986, 986, 986, 988, 988, 988, 988, 988, 986, 986, 986, 985, 985, 985, 985, 983, 982, 982, 980, 978
941, 941, 941, 943, 943, 946, 946, 948, 953, 953, 957, 963, 963, 968, 974, 974, 980, 983, 983, 988, 993, 993, 994, 994, 996, 999, 999, 1002, 1004, 1004, 1007, 1009, 1009, 1010, 1010, 1010, 1012, 1012, 1014, 1014, 1014, 1012, 1012, 1012, 1012, 1012, 1010, 1010, 1009, 1009, 1009, 1007, 1007, 1005, 1004, 1004, 999, 993, 993, 983, 983, 975, 966, 966, 959, 959, 951, 944, 944, 937, 937, 933, 930, 930, 930, 930, 929, 927, 927, 927, 927, 927, 927, 927, 927, 927, 927, 927, 929, 930, 930, 931, 931, 931, 933, 933, 933, 936, 936, 937, 938, 938, 941, 946, 946, 953, 960, 960, 966, 974, 974, 980, 980, 986, 993, 993, 999, 1002, 1002, 1004, 1005, 1005, 1007, 1007, 1007, 1007, 1007, 1007, 1007, 1007, 1005, 1005, 1004, 1004, 1002, 1001, 1001, 1001, 999, 999, 997, 997, 0, 0, 0, 0, 0, 0, 0, 0, 0, 0, 798, 798, 798, 798, 798, 798, 798, 798, 798, 798, 798, 798, 798, 798, 798, 799, 799, 798, 798, 798, 798, 798, 798, 798, 798, 797, 797, 797, 797, 797, 797, 798, 798, 798, 798, 798, 798, 798, 798, 798, 798, 797, 797, 797, 797, 797, 797, 797, 798, 798, 798, 798, 798, 798, 798, 798, 799, 799, 799, 799, 798, 798, 798, 799, 799, 799, 800, 800, 800, 800, 800, 801, 801, 801, 802, 802, 802, 802, 802, 801, 801, 801, 800, 800, 799, 799, 799, 798, 798, 798, 798, 798, 797, 797, 797, 797, 797, 797, 797, 797, 797, 796, 796, 796, 796, 795, 795, 795, 795, 795, 795, 794, 794, 795, 795, 795, 795, 795, 796, 796, 798, 798, 798, 799, 799, 800, 800, 800, 800, 800, 799, 798, 798, 797, 797, 796, 795, 795, 794, 794, 794, 793, 793, 793, 793, 793, 793, 793, 793, 793, 794, 794, 794, 795, 795, 795, 795, 795, 795, 795, 795, 795, 795, 796, 796, 796, 796, 796, 796, 796, 796, 796, 797, 797, 797, 797, 797, 797, 797, 796, 796, 796, 796, 796, 795, 795, 795, 794, 794, 794, 793, 793, 793, 793, 793, 792, 792, 792, 792, 793, 793, 793, 793, 792, 792, 792, 792, 792, 792, 792, 792, 792, 792, 791, 791, 792, 792, 792, 792, 792, 793, 793, 794, 794, 794, 794, 794, 794, 793, 793, 793, 793, 793, 793, 793, 793, 792, 792, 792, 792, 792, 792, 792, 792, 792, 793, 792, 792, 792, 792, 792, 791, 791, 791, 790, 790, 790, 790, 790, 789, 789, 789, 789, 789, 789, 789, 789, 789, 790, 791, 790, 790, 791, 791, 792, 792, 792, 792, 792, 792, 792, 792, 793, 793, 793, 793, 793, 793, 793, 792, 792, 792, 791, 791, 791, 790, 790, 790, 790, 789, 789, 789, 788, 788, 788, 787, 787, 785, 784, 784, 783, 782, 782, 780, 780, 780, 779, 779, 779, 779, 779, 779, 780, 780, 780, 781, 781, 782, 783, 783, 783, 785, 785, 785, 785, 786, 786, 786, 787, 787, 786, 786, 785, 785, 785, 785, 785, 785, 784, 784, 971, 972, 972, 974, 974, 974, 977, 977, 978, 978, 978, 980, 980, 980, 982, 982, 982, 982, 982, 982, 982, 982, 982, 982, 982, 982, 982, 982, 982, 982, 982, 982, 980, 980, 980, 980, 980, 978, 978, 978, 978, 978, 978, 978, 978, 978, 978, 978, 978, 978, 978, 978, 980, 980, 980, 982, 982, 982, 982, 983, 983, 983, 983, 983, 983, 985, 985, 985, 985, 985, 986, 986, 986, 986, 986, 986, 986, 986, 986, 986, 985, 985, 985, 985, 985, 983, 982, 982, 980, 978
940, 940, 940, 941, 941, 944, 944, 947, 951, 951, 956, 960, 960, 968, 974, 974, 980, 983, 983, 989, 993, 993, 996, 996, 997, 1001, 1001, 1002, 1005, 1005, 1009, 1010, 1010, 1010, 1010, 1012, 1014, 1014, 1014, 1014, 1014, 1012, 1012, 1012, 1012, 1012, 1010, 1010, 1009, 1009, 1009, 1007, 1007, 1005, 1004, 1004, 1001, 993, 993, 983, 983, 975, 966, 966, 959, 959, 951, 944, 944, 937, 937, 933, 931, 931, 930, 930, 929, 929, 929, 927, 927, 927, 927, 927, 927, 927, 927, 927, 929, 930, 930, 931, 931, 931, 931, 931, 933, 934, 934, 937, 938, 938, 941, 947, 947, 953, 960, 960, 966, 974, 974, 980, 980, 986, 993, 993, 999, 1002, 1002, 1004, 1005, 1005, 1007, 1007, 1007, 1007, 1007, 1007, 1007, 1007, 1005, 1005, 1004, 1004, 1002, 1001, 1001, 1001, 1001, 1001, 1001, 1001, 0, 0, 0, 0, 0, 0, 0, 0, 0, 0, 798, 798, 798, 798, 798, 798, 798, 798, 798, 798, 798, 798, 798, 798, 798, 799, 799, 799, 799, 799, 799, 799, 799, 799, 799, 799, 799, 799, 799, 799, 799, 799, 799, 799, 799, 799, 799, 799, 799, 799, 799, 798, 798, 798, 798, 798, 798, 798, 798, 798, 798, 798, 798, 799, 799, 799, 799, 799, 799, 799, 798, 798, 798, 799, 799, 799, 800, 800, 800, 800, 800, 801, 801, 801, 802, 802, 802, 802, 802, 802, 802, 801, 801, 801, 800, 799, 799, 799, 799, 798, 798, 798, 798, 797, 797, 797, 797, 797, 797, 797, 797, 797, 797, 796, 796, 796, 796, 796, 795, 795, 795, 794, 794, 795, 795, 795, 795, 795, 796, 796, 798, 798, 798, 799, 799, 800, 800, 800, 800, 800, 799, 798, 798, 797, 797, 796, 795, 795, 794, 794, 794, 793, 793, 793, 793, 793, 793, 793, 793, 793, 794, 794, 794, 795, 795, 795, 795, 795, 795, 795, 795, 795, 795, 796, 796, 796, 796, 796, 796, 796, 796, 796, 797, 797, 797, 797, 797, 797, 797, 796, 796, 796, 796, 796, 795, 795, 795, 794, 794, 794, 793, 793, 793, 793, 793, 792, 792, 792, 792, 793, 793, 793, 793, 792, 792, 792, 792, 792, 792, 792, 792, 791, 791, 791, 791, 792, 792, 792, 792, 792, 792, 792, 792, 792, 792, 793, 793, 793, 793, 793, 793, 793, 793, 793, 793, 792, 792, 792, 792, 792, 792, 792, 792, 792, 792, 792, 792, 792, 792, 792, 792, 791, 791, 791, 790, 790, 790, 790, 790, 789, 789, 789, 789, 789, 789, 789, 789, 789, 790, 791, 791, 791, 792, 792, 792, 792, 793, 793, 793, 793, 793, 793, 794, 794, 794, 794, 794, 794, 794, 793, 793, 793, 792, 792, 792, 791, 791, 790, 790, 789, 789, 789, 788, 787, 787, 786, 786, 785, 785, 785, 783, 782, 782, 781, 781, 780, 779, 779, 779, 779, 779, 779, 780, 780, 780, 781, 781, 782, 783, 783, 784, 785, 785, 786, 786, 786, 787, 787, 787, 787, 786, 786, 785, 785, 786, 785, 785, 785, 784, 784, 971, 972, 972, 974, 974, 975, 977, 977, 978, 980, 980, 980, 982, 982, 982, 982, 982, 982, 982, 982, 982, 982, 982, 982, 982, 982, 982, 982, 982, 980, 980, 980, 980, 980, 980, 980, 980, 978, 978, 978, 978, 978, 978, 978, 978, 978, 978, 978, 978, 978, 978, 978, 980, 980, 982, 982, 982, 982, 982, 983, 983, 983, 983, 983, 983, 985, 985, 985, 985, 985, 986, 986, 986, 986, 986, 986, 986, 986, 986, 986, 985, 985, 985, 985, 985, 983, 982, 982, 980, 978
940, 940, 940, 941, 941, 944, 944, 947, 951, 951, 956, 960, 960, 968, 974, 974, 980, 985, 985, 991, 994, 994, 997, 997, 999, 1002, 1002, 1005, 1009, 1009, 1010, 1010, 1010, 1012, 1012, 1012, 1014, 1014, 1015, 1015, 1014, 1014, 1014, 1012, 1012, 1012, 1010, 1010, 1010, 1010, 1010, 1007, 1007, 1007, 1004, 1004, 1001, 993, 993, 985, 985, 975, 966, 966, 959, 959, 951, 944, 944, 937, 937, 934, 931, 931, 930, 930, 930, 929, 929, 929, 927, 927, 927, 927, 927, 927, 927, 927, 929, 930, 930, 931, 931, 931, 931, 931, 933, 934, 934, 937, 938, 938, 941, 947, 947, 953, 959, 959, 966, 974, 974, 980, 980, 986, 993, 993, 999, 1002, 1002, 1004, 1005, 1005, 1007, 1007, 1007, 1007, 1007, 1007, 1007, 1007, 1005, 1005, 1004, 1004, 1002, 1001, 1001, 1001, 1001, 1001, 1001, 1001, 0, 0, 0, 0, 0, 0, 0, 0, 0, 0, 798, 797, 797, 797, 798, 798, 798, 798, 798, 798, 798, 798, 798, 798, 798, 799, 799, 799, 799, 799, 799, 799, 799, 799, 799, 799, 799, 799, 799, 799, 799, 799, 799, 799, 799, 799, 799, 799, 799, 799, 799, 798, 798, 798, 798, 798, 798, 798, 798, 798, 798, 798, 798, 799, 799, 799, 799, 799, 798, 798, 798, 798, 798, 798, 798, 798, 799, 799, 799, 799, 799, 800, 801, 801, 802, 802, 802, 802, 802, 802, 802, 801, 801, 801, 800, 799, 799, 799, 799, 798, 798, 798, 798, 797, 797, 797, 797, 797, 797, 797, 797, 797, 797, 796, 796, 796, 796, 796, 795, 795, 796, 796, 796, 796, 796, 796, 796, 796, 797, 797, 798, 799, 799, 799, 799, 800, 800, 800, 800, 800, 799, 798, 798, 797, 797, 796, 795, 795, 795, 794, 794, 794, 794, 793, 793, 793, 793, 794, 794, 794, 794, 794, 795, 795, 795, 796, 796, 796, 796, 796, 796, 796, 796, 796, 796, 796, 796, 796, 796, 796, 796, 797, 797, 797, 797, 797, 797, 797, 797, 796, 796, 796, 796, 796, 796, 796, 795, 795, 795, 794, 794, 794, 793, 793, 793, 793, 793, 793, 793, 793, 793, 793, 793, 793, 793, 792, 792, 792, 792, 792, 792, 791, 791, 791, 791, 791, 791, 791, 791, 791, 791, 791, 792, 792, 792, 793, 793, 793, 793, 793, 793, 793, 793, 793, 793, 792, 792, 792, 792, 792, 792, 792, 792, 792, 792, 792, 792, 792, 792, 792, 792, 792, 791, 791, 791, 791, 791, 791, 791, 790, 790, 790, 789, 789, 789, 790, 791, 791, 791, 791, 791, 791, 792, 792, 793, 793, 793, 793, 793, 794, 794, 794, 794, 794, 794, 794, 794, 794, 794, 793, 793, 793, 792, 792, 792, 791, 791, 790, 790, 789, 789, 789, 788, 787, 787, 786, 786, 786, 785, 785, 784, 783, 783, 782, 782, 781, 780, 780, 780, 780, 780, 780, 781, 781, 781, 782, 782, 783, 784, 784, 785, 785, 785, 786, 786, 787, 787, 787, 787, 787, 787, 786, 786, 786, 786, 785, 785, 785, 785, 785, 971, 972, 972, 975, 975, 975, 977, 977, 978, 980, 980, 982, 982, 982, 982, 982, 982, 982, 982, 982, 982, 982, 982, 982, 982, 982, 982, 982, 982, 980, 980, 980, 978, 978, 978, 978, 978, 978, 978, 978, 978, 978, 978, 978, 978, 978, 978, 978, 978, 978, 978, 978, 980, 980, 982, 982, 982, 982, 982, 983, 983, 983, 983, 983, 983, 985, 985, 985, 985, 985, 985, 985, 985, 986, 986, 986, 986, 986, 985, 985, 985, 985, 985, 983, 983, 983, 982, 982, 980, 978
938, 938, 938, 940, 940, 943, 943, 946, 950, 950, 954, 960, 960, 966, 974, 974, 978, 985, 985, 991, 994, 994, 997, 997, 999, 1002, 1002, 1005, 1009, 1009, 1010, 1010, 1010, 1012, 1012, 1012, 1014, 1014, 1015, 1015, 1014, 1014, 1014, 1012, 1012, 1012, 1010, 1010, 1010, 1010, 1010, 1007, 1007, 1007, 1004, 1004, 1001, 993, 993, 985, 985, 975, 966, 966, 959, 959, 951, 944, 944, 937, 937, 934, 931, 931, 930, 930, 930, 929, 929, 929, 927, 927, 927, 927, 927, 927, 927, 927, 929, 930, 930, 930, 931, 931, 931, 931, 933, 934, 934, 937, 938, 938, 943, 947, 947, 953, 959, 959, 965, 972, 972, 980, 986, 986, 993, 993, 997, 1001, 1001, 1004, 1005, 1005, 1007, 1007, 1007, 1007, 1007, 1007, 1007, 1007, 1005, 1005, 1005, 1004, 1004, 1004, 1004, 1004, 1002, 1002, 1002, 1002, 0, 0, 0, 0, 0, 0, 0, 0, 0, 0, 798, 797, 797, 797, 798, 798, 798, 798, 797, 797, 797, 797, 798, 798, 798, 799, 799, 799, 799, 799, 799, 799, 799, 799, 799, 799, 799, 799, 799, 799, 799, 799, 799, 799, 800, 799, 799, 799, 799, 799, 800, 799, 799, 799, 799, 799, 799, 799, 799, 799, 799, 799, 799, 799, 799, 799, 799, 798, 798, 798, 797, 797, 797, 798, 798, 798, 799, 799, 799, 799, 799, 800, 801, 801, 802, 802, 802, 802, 802, 802, 802, 802, 801, 801, 801, 800, 800, 799, 799, 799, 799, 799, 798, 797, 797, 797, 798, 797, 797, 798, 798, 797, 797, 797, 797, 796, 796, 796, 796, 796, 796, 796, 797, 797, 797, 797, 797, 797, 797, 797, 799, 799, 799, 800, 800, 800, 800, 800, 800, 800, 799, 798, 798, 797, 797, 796, 796, 796, 795, 795, 795, 794, 794, 794, 794, 794, 794, 795, 795, 795, 795, 795, 796, 796, 796, 796, 796, 796, 796, 796, 796, 796, 796, 796, 796, 796, 796, 796, 796, 797, 797, 797, 797, 797, 797, 797, 797, 797, 797, 797, 797, 797, 796, 796, 796, 796, 796, 795, 795, 794, 794, 794, 794, 794, 794, 793, 793, 793, 793, 794, 794, 793, 793, 793, 793, 792, 792, 792, 792, 792, 792, 791, 791, 791, 791, 791, 791, 791, 791, 791, 791, 791, 792, 792, 792, 792, 792, 791, 791, 791, 791, 791, 791, 792, 792, 792, 792, 792, 791, 791, 791, 791, 791, 791, 791, 792, 792, 792, 792, 792, 792, 792, 791, 791, 791, 791, 791, 791, 791, 790, 790, 790, 789, 789, 789, 790, 791, 791, 791, 791, 791, 791, 792, 792, 793, 793, 793, 793, 793, 794, 794, 794, 794, 794, 794, 794, 794, 793, 793, 793, 793, 793, 792, 792, 791, 791, 791, 790, 789, 789, 789, 789, 788, 787, 787, 786, 786, 785, 784, 784, 783, 783, 783, 782, 782, 781, 780, 780, 780, 780, 780, 780, 781, 781, 781, 782, 782, 783, 784, 784, 785, 785, 785, 786, 786, 787, 787, 787, 787, 787, 787, 786, 786, 786, 786, 785, 785, 785, 785, 785, 971, 972, 972, 975, 975, 975, 977, 977, 978, 980, 980, 982, 982, 982, 982, 982, 982, 982, 982, 982, 982, 982, 982, 982, 982, 982, 980, 980, 980, 978, 978, 978, 978, 978, 978, 977, 977, 977, 977, 977, 977, 977, 977, 978, 978, 978, 978, 978, 978, 978, 978, 980, 980, 980, 980, 982, 982, 982, 982, 982, 982, 982, 983, 983, 983, 983, 983, 983, 985, 985, 985, 985, 985, 985, 985, 985, 985, 985, 985, 985, 985, 983, 983, 983, 983, 983, 982, 982, 982, 980
938, 938, 938, 938, 938, 941, 941, 944, 948, 948, 953, 959, 959, 965, 972, 972, 978, 985, 985, 991, 996, 996, 999, 1001, 1001, 1004, 1004, 1007, 1009, 1009, 1012, 1012, 1012, 1014, 1014, 1014, 1015, 1015, 1015, 1015, 1015, 1014, 1014, 1012, 1012, 1012, 1010, 1010, 1010, 1010, 1010, 1009, 1009, 1007, 1005, 1005, 1001, 993, 993, 985, 985, 975, 968, 968, 959, 959, 951, 944, 944, 938, 938, 934, 931, 931, 931, 931, 930, 929, 929, 929, 929, 929, 927, 927, 927, 927, 927, 927, 929, 930, 930, 930, 931, 931, 931, 931, 933, 934, 934, 937, 938, 938, 943, 947, 947, 953, 959, 959, 965, 972, 972, 980, 986, 986, 993, 993, 997, 1001, 1001, 1004, 1005, 1005, 1007, 1007, 1007, 1007, 1007, 1007, 1009, 1007, 1007, 1007, 1005, 1004, 1004, 1004, 1005, 1005, 1005, 1005, 1004, 1004, 0, 0, 0, 0, 0, 0, 0, 0, 0, 0, 798, 797, 797, 797, 798, 798, 798, 798, 797, 797, 797, 797, 798, 799, 799, 799, 799, 799, 799, 799, 800, 800, 800, 800, 800, 800, 800, 800, 800, 800, 800, 800, 801, 801, 801, 801, 801, 801, 801, 801, 801, 800, 800, 800, 800, 800, 800, 800, 800, 800, 799, 799, 799, 799, 799, 799, 799, 798, 798, 798, 797, 797, 797, 797, 797, 797, 798, 798, 798, 798, 798, 799, 800, 800, 801, 802, 802, 802, 802, 802, 802, 802, 801, 801, 801, 800, 800, 799, 799, 799, 799, 799, 798, 797, 797, 796, 796, 796, 797, 797, 797, 797, 797, 797, 796, 796, 796, 796, 796, 796, 796, 796, 796, 796, 796, 797, 797, 797, 797, 797, 798, 799, 799, 799, 799, 799, 799, 799, 799, 799, 799, 798, 798, 797, 797, 796, 796, 796, 795, 795, 795, 794, 794, 794, 794, 794, 794, 795, 795, 795, 795, 795, 795, 796, 796, 796, 796, 796, 796, 796, 796, 796, 796, 796, 796, 796, 796, 796, 796, 797, 796, 796, 797, 797, 797, 797, 797, 797, 797, 797, 797, 797, 796, 796, 796, 796, 796, 795, 795, 794, 794, 794, 794, 794, 794, 793, 793, 793, 793, 794, 794, 793, 793, 793, 793, 792, 792, 792, 792, 792, 792, 791, 791, 791, 791, 791, 791, 791, 791, 791, 791, 791, 790, 790, 790, 790, 790, 790, 790, 790, 790, 790, 790, 790, 791, 791, 791, 791, 791, 791, 791, 791, 791, 791, 791, 791, 791, 792, 792, 793, 793, 793, 793, 793, 793, 793, 793, 793, 793, 792, 791, 791, 791, 791, 791, 791, 791, 791, 791, 792, 792, 792, 793, 793, 793, 793, 794, 794, 794, 794, 794, 794, 795, 794, 794, 794, 794, 793, 793, 793, 792, 792, 792, 792, 791, 790, 790, 790, 789, 789, 788, 788, 788, 787, 787, 786, 786, 785, 784, 784, 783, 783, 783, 782, 782, 782, 782, 782, 782, 782, 782, 782, 782, 783, 783, 783, 783, 784, 785, 785, 785, 786, 786, 787, 787, 787, 788, 788, 788, 788, 788, 787, 787, 787, 787, 787, 786, 786, 786, 786, 974, 974, 974, 975, 975, 977, 978, 978, 980, 980, 980, 982, 983, 983, 983, 983, 983, 983, 982, 982, 982, 982, 982, 982, 982, 982, 980, 980, 980, 978, 978, 978, 978, 978, 978, 977, 977, 977, 977, 977, 977, 977, 977, 978, 978, 978, 978, 978, 978, 978, 978, 980, 980, 980, 980, 982, 982, 982, 982, 982, 982, 982, 983, 983, 983, 983, 983, 983, 985, 985, 985, 985, 985, 985, 985, 985, 985, 985, 985, 985, 985, 983, 983, 983, 983, 983, 982, 982, 982, 980
938, 938, 938, 938, 938, 941, 941, 944, 948, 948, 953, 959, 959, 965, 972, 972, 978, 985, 985, 991, 996, 996, 999, 1002, 1002, 1005, 1005, 1009, 1010, 1010, 1014, 1015, 1014, 1014, 1015, 1015, 1015, 1015, 1015, 1015, 1015, 1014, 1014, 1012, 1012, 1012, 1012, 1012, 1010, 1010, 1010, 1009, 1009, 1007, 1005, 1005, 1001, 993, 993, 985, 985, 975, 968, 968, 959, 959, 951, 944, 944, 938, 938, 934, 931, 931, 931, 931, 930, 929, 929, 929, 929, 929, 927, 927, 927, 927, 927, 927, 929, 930, 930, 930, 931, 931, 931, 931, 933, 934, 934, 936, 938, 938, 941, 947, 947, 951, 957, 957, 965, 972, 972, 978, 985, 985, 991, 991, 996, 1001, 1001, 1004, 1005, 1005, 1007, 1007, 1007, 1007, 1007, 1007, 1009, 1007, 1007, 1007, 1005, 1004, 1004, 1004, 1005, 1005, 1005, 1005, 1004, 1004, 0, 0, 0, 0, 0, 0, 0, 0, 0, 0, 798, 797, 797, 797, 798, 798, 798, 798, 797, 797, 797, 797, 798, 799, 799, 799, 799, 799, 799, 799, 800, 800, 800, 800, 800, 800, 800, 800, 800, 800, 800, 800, 801, 801, 801, 801, 801, 801, 801, 801, 801, 800, 800, 800, 800, 800, 800, 800, 800, 800, 799, 799, 799, 799, 799, 799, 799, 798, 798, 798, 797, 797, 796, 796, 797, 797, 797, 797, 797, 798, 798, 799, 800, 800, 800, 801, 801, 803, 803, 803, 803, 802, 802, 802, 801, 800, 800, 800, 800, 799, 799, 799, 798, 797, 797, 796, 796, 796, 797, 797, 797, 797, 797, 797, 796, 796, 796, 796, 796, 796, 796, 796, 796, 796, 796, 797, 797, 797, 798, 798, 798, 799, 799, 799, 799, 799, 799, 799, 799, 799, 798, 798, 798, 797, 797, 796, 796, 796, 796, 795, 795, 795, 795, 795, 795, 795, 795, 795, 795, 795, 795, 795, 795, 796, 796, 796, 797, 796, 796, 796, 796, 796, 796, 796, 796, 796, 796, 796, 796, 797, 796, 796, 797, 797, 797, 798, 798, 798, 797, 797, 797, 797, 797, 797, 796, 796, 796, 795, 795, 795, 794, 794, 794, 794, 794, 794, 794, 793, 793, 794, 794, 793, 793, 793, 793, 793, 793, 793, 793, 792, 792, 792, 792, 791, 791, 791, 791, 791, 791, 791, 791, 791, 790, 790, 790, 790, 790, 790, 790, 790, 790, 790, 790, 790, 791, 791, 791, 791, 791, 791, 791, 791, 791, 791, 791, 791, 791, 792, 792, 793, 794, 794, 794, 794, 794, 795, 795, 795, 795, 794, 794, 794, 793, 793, 793, 793, 793, 793, 793, 793, 793, 793, 794, 794, 794, 794, 794, 794, 794, 794, 794, 794, 795, 795, 794, 794, 794, 794, 794, 793, 792, 792, 792, 792, 791, 790, 790, 790, 789, 789, 788, 788, 788, 787, 787, 786, 786, 785, 784, 784, 784, 783, 783, 783, 782, 782, 782, 782, 782, 782, 783, 783, 783, 784, 784, 784, 784, 785, 785, 785, 786, 786, 786, 787, 787, 787, 788, 788, 788, 788, 788, 787, 787, 787, 787, 787, 786, 786, 786, 786, 974, 974, 974, 975, 975, 977, 978, 978, 980, 980, 980, 982, 983, 983, 983, 983, 983, 983, 982, 982, 982, 982, 982, 982, 982, 982, 980, 978, 978, 978, 978, 978, 977, 977, 977, 975, 975, 975, 975, 975, 977, 977, 977, 977, 977, 977, 978, 978, 978, 978, 978, 978, 980, 980, 980, 982, 982, 982, 982, 982, 982, 982, 982, 983, 983, 983, 983, 983, 983, 983, 983, 983, 983, 983, 983, 983, 985, 983, 983, 983, 983, 983, 983, 983, 983, 983, 982, 982, 982, 980
937, 937, 937, 938, 938, 940, 940, 944, 947, 947, 951, 959, 959, 965, 971, 971, 978, 983, 983, 989, 996, 996, 999, 1002, 1002, 1005, 1005, 1009, 1010, 1010, 1014, 1015, 1014, 1014, 1015, 1015, 1015, 1015, 1015, 1015, 1015, 1014, 1014, 1012, 1012, 1012, 1012, 1012, 1010, 1010, 1010, 1009, 1009, 1009, 1005, 1005, 1002, 994, 994, 985, 985, 977, 968, 968, 960, 960, 951, 944, 944, 938, 938, 934, 933, 933, 931, 931, 931, 930, 930, 930, 929, 929, 929, 927, 927, 927, 927, 927, 929, 929, 929, 930, 930, 930, 930, 930, 931, 934, 934, 936, 938, 938, 941, 946, 946, 951, 957, 957, 963, 971, 971, 977, 977, 983, 989, 989, 994, 999, 999, 1002, 1005, 1005, 1007, 1007, 1007, 1009, 1009, 1009, 1009, 1009, 1007, 1007, 1007, 1007, 1007, 1005, 1005, 1005, 1005, 1005, 1005, 1005, 0, 0, 0, 0, 0, 0, 0, 0, 0, 0, 798, 798, 798, 798, 798, 798, 798, 798, 798, 798, 798, 798, 798, 799, 799, 800, 800, 800, 800, 800, 800, 800, 800, 800, 801, 801, 801, 801, 802, 802, 802, 802, 802, 802, 802, 802, 801, 801, 801, 802, 802, 801, 801, 801, 801, 801, 800, 800, 800, 800, 800, 801, 799, 799, 799, 799, 799, 798, 798, 798, 797, 797, 796, 796, 797, 797, 797, 797, 797, 798, 798, 799, 800, 800, 800, 801, 801, 803, 803, 803, 803, 803, 802, 802, 802, 801, 801, 800, 800, 799, 799, 799, 798, 797, 797, 797, 797, 797, 797, 798, 798, 797, 797, 797, 797, 797, 797, 797, 797, 797, 797, 797, 797, 797, 797, 797, 797, 797, 798, 798, 798, 799, 799, 799, 799, 799, 799, 799, 799, 799, 798, 798, 798, 797, 797, 797, 796, 796, 796, 796, 796, 795, 795, 795, 795, 795, 795, 795, 796, 796, 796, 796, 796, 796, 796, 796, 797, 797, 797, 797, 796, 796, 796, 796, 796, 796, 796, 796, 796, 797, 796, 796, 797, 797, 797, 798, 798, 798, 797, 797, 797, 797, 797, 797, 796, 796, 796, 795, 795, 795, 794, 794, 794, 794, 794, 794, 794, 793, 793, 794, 794, 793, 793, 793, 793, 793, 793, 793, 793, 792, 792, 792, 792, 791, 791, 791, 790, 790, 790, 790, 790, 790, 790, 790, 790, 790, 790, 789, 789, 789, 790, 790, 790, 790, 790, 790, 790, 790, 790, 790, 790, 790, 790, 790, 791, 791, 791, 792, 792, 793, 794, 794, 794, 794, 794, 795, 795, 795, 795, 794, 794, 794, 793, 793, 793, 793, 793, 793, 793, 793, 793, 793, 794, 794, 794, 794, 794, 794, 794, 794, 794, 794, 794, 794, 794, 794, 793, 793, 793, 792, 792, 792, 791, 791, 790, 790, 790, 789, 788, 788, 788, 788, 787, 786, 786, 785, 785, 784, 784, 784, 783, 783, 783, 783, 782, 782, 782, 782, 782, 782, 783, 783, 783, 784, 784, 784, 784, 785, 785, 785, 786, 786, 786, 787, 787, 787, 788, 788, 788, 788, 788, 787, 787, 787, 787, 787, 787, 787, 787, 787, 974, 974, 974, 977, 977, 977, 978, 978, 980, 982, 982, 983, 983, 983, 983, 983, 983, 983, 983, 983, 983, 983, 983, 983, 982, 982, 980, 978, 978, 978, 978, 977, 975, 975, 975, 975, 975, 974, 974, 974, 975, 975, 975, 975, 975, 975, 977, 977, 977, 978, 978, 978, 978, 978, 980, 980, 980, 982, 982, 982, 982, 982, 982, 982, 982, 982, 982, 982, 983, 983, 983, 983, 982, 982, 982, 983, 983, 983, 983, 983, 983, 983, 983, 983, 983, 983, 982, 982, 982, 982
937, 937, 937, 938, 938, 940, 940, 943, 947, 947, 951, 959, 959, 965, 971, 971, 978, 983, 983, 989, 996, 996, 999, 1002, 1002, 1005, 1005, 1009, 1012, 1012, 1014, 1015, 1015, 1015, 1015, 1015, 1015, 1015, 1017, 1017, 1015, 1014, 1014, 1012, 1012, 1012, 1012, 1012, 1012, 1010, 1010, 1010, 1010, 1009, 1007, 1007, 1002, 994, 994, 985, 985, 977, 977, 0, 960, 960, 953, 946, 946, 938, 938, 936, 934, 934, 933, 931, 931, 930, 930, 930, 930, 930, 929, 929, 929, 927, 927, 927, 929, 929, 929, 930, 930, 930, 930, 930, 931, 934, 934, 936, 938, 938, 941, 946, 946, 951, 957, 957, 963, 971, 971, 977, 977, 983, 989, 989, 994, 999, 999, 1002, 1005, 1005, 1007, 1009, 1009, 1009, 1010, 1010, 1010, 1010, 1009, 1009, 1009, 1007, 1007, 1007, 1007, 1007, 1007, 1007, 1005, 1005, 0, 0, 0, 0, 0, 0, 0, 0, 0, 0, 798, 798, 798, 798, 798, 798, 798, 798, 798, 798, 799, 799, 799, 799, 799, 800, 800, 800, 800, 800, 800, 800, 800, 800, 801, 801, 801, 801, 802, 802, 802, 802, 802, 802, 802, 802, 801, 801, 801, 802, 802, 801, 801, 801, 801, 801, 800, 800, 800, 800, 800, 801, 799, 799, 799, 799, 799, 798, 797, 797, 796, 796, 796, 796, 796, 796, 797, 797, 797, 798, 798, 798, 799, 799, 800, 801, 801, 803, 803, 803, 803, 803, 802, 802, 802, 801, 801, 800, 800, 799, 799, 799, 798, 797, 797, 797, 797, 797, 797, 798, 798, 797, 797, 797, 797, 797, 797, 797, 797, 797, 797, 797, 797, 797, 797, 797, 797, 797, 798, 798, 798, 798, 798, 798, 798, 799, 799, 799, 798, 798, 798, 798, 798, 797, 797, 797, 796, 796, 796, 796, 796, 795, 795, 795, 795, 795, 795, 795, 796, 796, 796, 796, 796, 796, 796, 796, 797, 797, 796, 796, 796, 796, 795, 795, 796, 796, 796, 796, 796, 797, 796, 796, 797, 797, 797, 798, 798, 798, 798, 797, 797, 797, 797, 797, 796, 796, 796, 795, 795, 795, 795, 795, 794, 794, 794, 794, 794, 794, 794, 794, 794, 794, 794, 794, 794, 794, 793, 793, 793, 792, 792, 792, 792, 791, 791, 791, 790, 790, 790, 790, 790, 790, 790, 790, 790, 789, 789, 789, 789, 789, 789, 789, 789, 790, 790, 790, 790, 790, 790, 790, 790, 790, 790, 790, 791, 791, 791, 792, 792, 793, 794, 794, 795, 796, 796, 796, 797, 797, 797, 797, 796, 796, 795, 795, 795, 795, 795, 795, 794, 794, 794, 794, 794, 794, 794, 794, 794, 794, 794, 794, 794, 794, 794, 793, 793, 793, 793, 793, 793, 792, 792, 792, 791, 791, 790, 790, 790, 789, 788, 788, 788, 788, 787, 786, 786, 785, 785, 784, 784, 784, 783, 783, 783, 783, 782, 782, 782, 782, 782, 782, 783, 783, 784, 784, 784, 784, 784, 785, 785, 785, 786, 786, 786, 787, 787, 787, 788, 788, 788, 789, 789, 789, 789, 788, 788, 788, 787, 787, 787, 788, 974, 974, 974, 977, 977, 977, 980, 980, 980, 983, 983, 983, 985, 985, 985, 985, 985, 985, 985, 983, 983, 983, 983, 983, 982, 982, 980, 978, 978, 978, 978, 977, 975, 975, 975, 975, 975, 974, 974, 974, 975, 975, 975, 975, 975, 975, 977, 977, 977, 978, 978, 978, 978, 978, 980, 980, 980, 982, 982, 982, 982, 982, 982, 982, 982, 982, 982, 982, 983, 983, 983, 983, 982, 982, 982, 983, 983, 983, 983, 983, 983, 983, 983, 983, 983, 983, 982, 982, 982, 982
938, 938, 938, 938, 938, 940, 940, 943, 947, 947, 950, 957, 957, 963, 969, 969, 975, 982, 982, 989, 994, 994, 997, 1001, 1001, 1004, 1004, 1009, 1010, 1010, 1014, 1015, 1015, 1015, 1015, 1015, 1015, 1015, 1017, 1017, 1015, 1014, 1014, 1012, 1012, 1012, 1012, 1012, 1012, 1010, 1010, 1010, 1010, 1009, 1007, 1007, 1002, 994, 994, 985, 985, 977, 977, 0, 960, 960, 953, 946, 946, 938, 938, 936, 934, 934, 933, 931, 931, 930, 930, 930, 930, 930, 929, 929, 929, 927, 927, 927, 929, 929, 929, 930, 930, 930, 930, 930, 931, 933, 933, 936, 938, 938, 941, 946, 946, 950, 957, 957, 963, 969, 969, 975, 975, 982, 988, 988, 994, 997, 997, 1002, 1005, 1005, 1007, 1009, 1009, 1009, 1010, 1010, 1010, 1010, 1009, 1009, 1009, 1007, 1007, 1007, 1007, 1007, 1007, 1007, 1005, 1005, 0, 0, 0, 0, 0, 0, 0, 0, 0, 0, 798, 798, 798, 798, 798, 798, 798, 798, 798, 798, 799, 799, 799, 799, 799, 800, 800, 800, 800, 800, 801, 801, 801, 801, 802, 802, 802, 802, 803, 803, 803, 803, 803, 803, 803, 803, 803, 803, 803, 802, 802, 801, 801, 801, 801, 801, 801, 800, 800, 800, 800, 801, 799, 799, 799, 798, 798, 798, 797, 797, 796, 796, 796, 796, 796, 796, 797, 797, 797, 798, 798, 798, 799, 799, 800, 801, 801, 803, 803, 803, 804, 804, 803, 803, 802, 801, 801, 801, 801, 800, 799, 799, 798, 797, 797, 797, 797, 797, 797, 798, 798, 798, 798, 797, 797, 797, 797, 797, 797, 797, 798, 797, 797, 797, 797, 798, 798, 798, 798, 798, 798, 798, 798, 798, 798, 799, 799, 799, 798, 798, 798, 798, 798, 797, 797, 797, 797, 797, 797, 797, 797, 796, 796, 796, 796, 796, 796, 796, 796, 796, 796, 796, 796, 796, 796, 796, 797, 797, 796, 796, 796, 796, 795, 795, 796, 796, 796, 796, 796, 797, 796, 796, 797, 797, 798, 798, 798, 798, 798, 798, 798, 798, 797, 797, 797, 797, 796, 796, 796, 795, 795, 795, 795, 795, 795, 795, 795, 795, 795, 795, 794, 794, 794, 794, 794, 794, 793, 793, 793, 792, 792, 792, 792, 791, 791, 791, 790, 790, 790, 790, 790, 790, 790, 790, 790, 789, 789, 789, 789, 789, 789, 789, 789, 790, 790, 790, 790, 790, 790, 790, 790, 790, 790, 790, 791, 791, 791, 792, 792, 794, 795, 795, 796, 797, 797, 798, 799, 799, 799, 799, 798, 798, 798, 798, 798, 797, 797, 796, 796, 796, 795, 795, 795, 795, 795, 795, 795, 795, 794, 794, 794, 794, 794, 793, 793, 793, 793, 792, 792, 792, 791, 791, 790, 790, 790, 789, 789, 788, 788, 787, 787, 787, 786, 786, 786, 785, 785, 784, 783, 783, 783, 783, 783, 783, 782, 782, 782, 782, 782, 782, 783, 783, 784, 784, 784, 784, 784, 785, 785, 785, 786, 786, 786, 787, 787, 787, 788, 788, 788, 789, 789, 789, 789, 788, 788, 788, 787, 787, 787, 788, 974, 974, 974, 977, 977, 977, 980, 980, 980, 983, 983, 983, 985, 985, 985, 985, 985, 985, 985, 983, 983, 983, 983, 983, 982, 982, 980, 978, 978, 977, 977, 975, 975, 975, 975, 972, 972, 972, 972, 972, 974, 974, 974, 974, 975, 975, 975, 975, 975, 977, 977, 978, 978, 978, 978, 980, 980, 980, 980, 982, 982, 982, 982, 982, 982, 982, 982, 982, 982, 982, 982, 982, 982, 982, 982, 982, 982, 982, 982, 982, 982, 982, 982, 982, 982, 982, 982, 982, 982, 982
938, 938, 938, 938, 938, 940, 940, 943, 947, 947, 950, 956, 956, 963, 969, 969, 975, 982, 982, 988, 993, 993, 997, 1001, 1001, 1004, 1004, 1007, 1010, 1010, 1014, 1015, 1015, 1015, 1015, 1015, 1017, 1017, 1017, 1017, 1015, 1015, 1015, 1014, 1014, 1012, 1012, 1012, 1012, 1012, 1012, 1010, 1010, 1009, 1007, 1007, 1002, 994, 994, 986, 986, 977, 969, 969, 962, 962, 953, 946, 946, 938, 938, 937, 936, 936, 934, 933, 933, 931, 931, 931, 930, 930, 930, 929, 929, 927, 927, 927, 929, 929, 929, 929, 929, 929, 929, 929, 930, 933, 933, 936, 938, 938, 941, 946, 946, 950, 957, 957, 963, 969, 969, 975, 975, 980, 986, 986, 993, 997, 997, 1002, 1005, 1005, 1007, 1009, 1009, 1010, 1012, 1012, 1012, 1012, 1010, 1010, 1010, 1009, 1009, 1007, 1007, 1007, 1007, 1007, 1005, 1005, 0, 0, 0, 0, 0, 0, 0, 0, 0, 0, 798, 798, 798, 798, 799, 799, 799, 799, 799, 799, 799, 799, 799, 800, 800, 800, 800, 800, 801, 801, 801, 801, 801, 802, 803, 803, 803, 803, 803, 803, 803, 804, 804, 804, 804, 804, 803, 803, 803, 802, 802, 802, 802, 802, 801, 801, 801, 800, 800, 800, 800, 801, 799, 799, 799, 798, 798, 798, 797, 797, 797, 797, 796, 796, 797, 797, 797, 797, 797, 798, 798, 798, 799, 799, 800, 801, 801, 803, 804, 804, 804, 804, 803, 803, 802, 801, 801, 801, 801, 800, 799, 799, 798, 798, 798, 797, 797, 797, 798, 798, 798, 798, 798, 798, 797, 797, 797, 798, 798, 798, 798, 798, 798, 798, 798, 798, 798, 798, 799, 799, 799, 799, 799, 799, 799, 799, 799, 799, 798, 798, 798, 798, 798, 797, 797, 797, 797, 797, 797, 797, 797, 796, 796, 796, 796, 796, 796, 796, 796, 796, 796, 796, 796, 796, 796, 796, 796, 796, 796, 796, 795, 795, 795, 795, 796, 796, 796, 796, 796, 796, 796, 796, 797, 797, 798, 798, 798, 798, 798, 798, 798, 798, 797, 797, 797, 797, 796, 796, 796, 795, 795, 795, 795, 795, 795, 795, 795, 795, 795, 795, 794, 794, 794, 794, 794, 794, 793, 793, 793, 792, 792, 792, 792, 791, 791, 791, 790, 790, 790, 789, 789, 789, 789, 790, 789, 789, 789, 789, 789, 789, 789, 789, 789, 790, 790, 790, 790, 790, 790, 790, 790, 790, 790, 790, 791, 791, 791, 792, 792, 794, 795, 795, 796, 797, 797, 798, 799, 799, 799, 799, 798, 798, 798, 798, 798, 797, 797, 796, 796, 796, 795, 795, 795, 795, 795, 795, 795, 795, 794, 793, 793, 793, 793, 793, 793, 793, 792, 792, 792, 791, 791, 791, 790, 790, 789, 788, 788, 788, 788, 787, 786, 786, 786, 785, 785, 785, 784, 784, 783, 783, 783, 783, 783, 783, 783, 783, 783, 783, 783, 783, 783, 783, 784, 784, 784, 784, 784, 785, 786, 786, 786, 786, 786, 787, 787, 787, 787, 787, 788, 789, 789, 789, 789, 789, 789, 788, 788, 788, 788, 789, 971, 974, 974, 975, 975, 977, 980, 980, 982, 983, 983, 985, 985, 985, 986, 985, 985, 985, 985, 985, 985, 983, 983, 983, 982, 982, 980, 978, 978, 977, 977, 975, 975, 975, 974, 972, 972, 972, 972, 972, 972, 972, 972, 972, 974, 974, 975, 975, 975, 977, 977, 978, 978, 978, 978, 980, 980, 980, 980, 982, 982, 982, 982, 982, 982, 982, 982, 982, 982, 982, 982, 982, 982, 982, 982, 982, 982, 982, 982, 982, 982, 982, 982, 982, 982, 982, 982, 982, 982, 982
938, 938, 938, 938, 938, 941, 941, 943, 947, 947, 951, 956, 956, 963, 969, 969, 975, 982, 982, 988, 993, 993, 997, 1001, 1001, 1004, 1004, 1007, 1010, 1010, 1014, 1015, 1015, 1015, 1015, 1015, 1017, 1017, 1017, 1017, 1017, 1015, 1015, 1014, 1014, 1014, 1012, 1012, 1012, 1012, 1012, 1012, 1012, 1010, 1007, 1007, 1002, 994, 994, 986, 986, 977, 969, 969, 962, 962, 953, 946, 946, 940, 940, 937, 936, 936, 934, 934, 934, 933, 933, 933, 931, 931, 930, 929, 929, 929, 929, 929, 929, 929, 929, 929, 929, 929, 929, 929, 930, 933, 933, 936, 938, 938, 941, 946, 946, 951, 957, 957, 963, 969, 969, 975, 975, 980, 986, 986, 993, 997, 997, 1001, 1005, 1005, 1007, 1009, 1009, 1010, 1012, 1012, 1012, 1012, 1010, 1010, 1010, 1009, 1009, 1007, 1007, 1007, 1007, 1007, 1005, 1005, 0, 0, 0, 0, 0, 0, 0, 0, 799, 799, 798, 798, 798, 798, 799, 799, 799, 799, 799, 799, 799, 799, 799, 800, 800, 800, 800, 800, 801, 801, 801, 801, 801, 802, 803, 803, 803, 803, 803, 803, 803, 804, 804, 804, 804, 804, 803, 803, 803, 802, 802, 802, 802, 802, 801, 801, 801, 800, 800, 800, 800, 800, 799, 799, 799, 798, 798, 797, 797, 797, 797, 797, 796, 796, 797, 797, 797, 797, 797, 797, 797, 798, 799, 799, 800, 801, 801, 803, 804, 804, 804, 804, 803, 803, 802, 801, 801, 801, 801, 800, 799, 799, 798, 798, 798, 797, 797, 797, 798, 798, 798, 798, 798, 798, 797, 797, 797, 798, 798, 798, 798, 798, 798, 798, 798, 798, 798, 798, 799, 799, 799, 799, 799, 799, 799, 799, 799, 799, 799, 799, 799, 798, 798, 798, 798, 798, 798, 798, 798, 798, 798, 797, 797, 797, 797, 797, 797, 797, 797, 797, 797, 797, 797, 797, 797, 796, 796, 796, 796, 796, 795, 795, 795, 795, 795, 795, 795, 796, 796, 796, 796, 797, 797, 797, 797, 798, 798, 798, 798, 798, 798, 798, 798, 798, 797, 797, 797, 797, 797, 797, 796, 796, 796, 795, 795, 795, 795, 795, 795, 795, 795, 795, 795, 794, 794, 794, 794, 794, 793, 793, 793, 792, 792, 791, 790, 790, 790, 790, 790, 789, 789, 789, 789, 789, 789, 789, 790, 789, 789, 789, 790, 790, 790, 790, 790, 790, 791, 791, 790, 790, 790, 790, 790, 790, 791, 791, 791, 793, 793, 794, 795, 795, 797, 798, 798, 800, 801, 801, 802, 802, 801, 801, 801, 800, 800, 800, 800, 798, 798, 798, 797, 796, 796, 796, 796, 795, 795, 795, 794, 793, 793, 793, 793, 793, 793, 793, 792, 792, 792, 791, 791, 791, 790, 790, 789, 788, 788, 788, 788, 787, 786, 786, 786, 785, 785, 785, 784, 784, 783, 783, 783, 783, 783, 783, 783, 783, 783, 783, 783, 783, 783, 783, 784, 785, 785, 785, 785, 785, 786, 786, 786, 786, 786, 787, 787, 787, 787, 787, 788, 789, 789, 789, 789, 789, 789, 789, 788, 788, 788, 789, 971, 974, 974, 975, 975, 977, 980, 980, 982, 985, 985, 986, 986, 986, 986, 986, 986, 986, 985, 985, 985, 983, 983, 983, 982, 982, 980, 978, 978, 977, 977, 975, 975, 975, 974, 972, 972, 972, 972, 972, 972, 972, 972, 972, 974, 974, 974, 974, 975, 975, 975, 977, 977, 977, 978, 978, 978, 978, 978, 980, 980, 980, 980, 980, 980, 980, 980, 980, 980, 980, 980, 980, 980, 980, 980, 980, 980, 980, 980, 980, 980, 980, 982, 982, 982, 982, 982, 982, 982, 982
938, 938, 938, 938, 938, 941, 941, 943, 947, 947, 951, 956, 956, 962, 969, 969, 974, 980, 980, 986, 993, 993, 997, 1001, 1001, 1004, 1004, 1007, 1010, 1010, 1014, 1015, 1015, 1015, 1015, 1015, 1017, 1017, 1017, 1017, 1017, 1015, 1015, 1014, 1014, 1014, 1012, 1012, 1012, 1012, 1012, 1012, 1010, 1010, 1007, 1007, 1002, 994, 994, 986, 986, 977, 969, 969, 962, 962, 953, 946, 946, 940, 940, 937, 936, 936, 934, 934, 934, 933, 933, 933, 931, 931, 930, 929, 929, 929, 929, 929, 929, 929, 929, 929, 929, 929, 929, 929, 930, 933, 933, 936, 938, 938, 941, 946, 946, 951, 957, 957, 962, 969, 969, 975, 975, 980, 986, 986, 993, 996, 996, 1001, 1004, 1004, 1007, 1010, 1010, 1012, 1014, 1012, 1012, 1012, 1012, 1012, 1010, 1009, 1009, 1007, 1007, 1007, 1007, 0, 0, 0, 0, 0, 0, 0, 0, 0, 0, 0, 799, 799, 799, 798, 798, 798, 799, 799, 799, 799, 799, 799, 800, 800, 800, 800, 800, 801, 801, 801, 801, 801, 801, 802, 802, 803, 803, 803, 804, 804, 804, 804, 804, 804, 804, 804, 804, 804, 804, 804, 803, 803, 803, 802, 802, 802, 801, 801, 800, 800, 800, 800, 799, 799, 799, 799, 798, 797, 797, 797, 797, 797, 797, 797, 796, 796, 796, 796, 797, 797, 797, 797, 797, 798, 799, 799, 800, 801, 801, 803, 804, 804, 804, 804, 803, 803, 802, 801, 801, 801, 801, 800, 800, 800, 798, 798, 798, 798, 798, 798, 798, 798, 798, 798, 798, 798, 798, 798, 798, 798, 798, 798, 798, 798, 798, 798, 798, 799, 799, 799, 799, 799, 799, 799, 799, 799, 799, 799, 800, 799, 799, 799, 799, 798, 798, 798, 798, 798, 798, 798, 798, 798, 798, 798, 798, 798, 798, 799, 799, 799, 799, 798, 798, 798, 798, 798, 797, 797, 797, 797, 796, 796, 795, 795, 795, 795, 795, 795, 795, 796, 796, 797, 797, 797, 797, 797, 797, 798, 798, 798, 798, 798, 798, 798, 798, 798, 798, 797, 797, 797, 798, 797, 797, 797, 796, 795, 795, 795, 795, 795, 795, 795, 795, 795, 795, 794, 794, 794, 794, 794, 793, 793, 793, 792, 792, 791, 790, 790, 790, 790, 790, 789, 789, 789, 789, 789, 789, 790, 790, 790, 790, 790, 790, 790, 790, 790, 790, 790, 791, 791, 790, 790, 790, 790, 790, 790, 791, 791, 791, 793, 793, 794, 795, 795, 797, 798, 798, 800, 801, 801, 802, 802, 801, 801, 801, 800, 800, 800, 800, 798, 798, 798, 797, 796, 796, 796, 796, 795, 795, 795, 794, 793, 793, 793, 793, 793, 792, 792, 791, 791, 791, 791, 791, 790, 789, 789, 789, 788, 788, 787, 787, 787, 786, 786, 785, 785, 785, 784, 784, 783, 783, 783, 783, 783, 783, 783, 783, 783, 783, 783, 783, 783, 783, 783, 784, 785, 785, 785, 785, 785, 786, 786, 786, 786, 786, 787, 787, 787, 787, 787, 788, 789, 789, 788, 788, 788, 789, 789, 788, 788, 788, 789, 969, 972, 972, 974, 974, 975, 978, 978, 982, 983, 983, 986, 986, 986, 986, 986, 986, 986, 985, 985, 985, 983, 983, 983, 982, 982, 980, 978, 978, 977, 977, 975, 974, 974, 972, 972, 972, 971, 971, 971, 971, 971, 971, 972, 972, 972, 972, 972, 974, 974, 974, 975, 975, 975, 975, 977, 977, 977, 977, 978, 978, 978, 978, 978, 978, 978, 978, 978, 978, 978, 978, 978, 978, 978, 978, 978, 978, 978, 978, 980, 980, 980, 982, 982, 982, 980, 980, 982, 980, 980
938, 938, 938, 940, 940, 941, 941, 944, 947, 947, 951, 956, 956, 962, 969, 969, 974, 980, 980, 986, 991, 991, 996, 999, 999, 1002, 1002, 1007, 1010, 1010, 1014, 1015, 1015, 1015, 1017, 1017, 1017, 1017, 1019, 1019, 1017, 1015, 1015, 1015, 1015, 1014, 1012, 1012, 1012, 1012, 1012, 1010, 1010, 1010, 1009, 1009, 1002, 994, 994, 986, 986, 978, 969, 969, 962, 962, 953, 946, 946, 940, 940, 938, 937, 937, 936, 936, 936, 934, 934, 933, 933, 933, 931, 929, 929, 929, 929, 929, 929, 929, 929, 929, 929, 929, 929, 929, 930, 933, 933, 936, 938, 938, 941, 946, 946, 951, 957, 957, 962, 969, 969, 975, 975, 980, 986, 986, 993, 996, 996, 1001, 1004, 1004, 1007, 1010, 1010, 1012, 1014, 1014, 1014, 1014, 1012, 1012, 1010, 1009, 1009, 1009, 1009, 1007, 1007, 0, 0, 0, 0, 0, 0, 0, 0, 0, 0, 0, 799, 799, 799, 799, 799, 799, 800, 800, 800, 800, 800, 800, 800, 800, 800, 801, 801, 801, 801, 801, 801, 801, 802, 803, 803, 803, 804, 804, 804, 804, 805, 805, 805, 805, 805, 805, 805, 805, 804, 804, 803, 803, 803, 802, 802, 802, 801, 801, 800, 800, 800, 800, 799, 799, 799, 799, 798, 797, 797, 797, 797, 797, 797, 797, 796, 796, 796, 796, 797, 797, 797, 798, 799, 799, 799, 799, 800, 801, 801, 803, 804, 804, 804, 804, 803, 803, 802, 801, 801, 801, 801, 800, 800, 800, 798, 798, 798, 798, 798, 798, 798, 798, 798, 798, 798, 798, 798, 798, 798, 798, 798, 798, 798, 798, 798, 798, 798, 799, 799, 799, 799, 799, 799, 799, 799, 799, 799, 799, 800, 799, 799, 799, 799, 798, 798, 798, 798, 798, 798, 798, 798, 798, 798, 798, 798, 798, 798, 799, 799, 799, 799, 798, 798, 798, 797, 797, 797, 796, 796, 796, 795, 795, 795, 795, 795, 795, 795, 795, 795, 795, 795, 796, 796, 797, 797, 797, 797, 797, 797, 797, 797, 798, 798, 798, 798, 798, 798, 797, 797, 797, 798, 797, 797, 797, 796, 795, 795, 795, 795, 795, 795, 795, 795, 795, 795, 794, 794, 794, 794, 794, 793, 793, 793, 792, 792, 791, 790, 790, 790, 790, 790, 789, 789, 789, 789, 789, 789, 790, 790, 790, 790, 790, 790, 790, 790, 790, 790, 790, 791, 791, 790, 790, 790, 790, 790, 790, 791, 792, 792, 793, 793, 795, 796, 796, 797, 799, 799, 801, 803, 803, 804, 804, 803, 803, 803, 802, 802, 801, 801, 800, 799, 799, 798, 797, 797, 796, 796, 796, 795, 795, 794, 793, 793, 793, 793, 792, 791, 791, 791, 790, 790, 790, 790, 789, 789, 789, 788, 788, 788, 787, 787, 786, 786, 786, 785, 785, 785, 784, 784, 783, 783, 783, 783, 783, 783, 783, 783, 783, 783, 783, 783, 783, 783, 783, 785, 785, 785, 785, 785, 785, 786, 786, 786, 786, 786, 787, 787, 787, 787, 787, 788, 789, 789, 788, 788, 788, 789, 789, 789, 789, 789, 968, 969, 972, 972, 974, 974, 975, 978, 978, 982, 983, 983, 986, 986, 986, 986, 986, 986, 986, 985, 985, 985, 983, 983, 983, 982, 982, 980, 978, 978, 977, 977, 975, 974, 974, 972, 972, 972, 971, 971, 971, 971, 971, 971, 972, 972, 972, 972, 972, 974, 974, 974, 975, 975, 975, 975, 977, 977, 977, 977, 978, 978, 978, 978, 978, 978, 978, 978, 978, 978, 978, 978, 978, 978, 978, 978, 978, 978, 978, 978, 980, 980, 980, 982, 982, 982, 980, 980, 982, 980, 980
940, 940, 941, 941, 941, 944, 944, 946, 948, 948, 951, 957, 957, 963, 969, 969, 974, 980, 980, 986, 991, 991, 996, 999, 999, 1002, 1002, 1007, 1010, 1010, 1014, 1015, 1015, 1017, 1017, 1017, 1019, 1019, 1019, 1019, 1017, 1017, 1017, 1015, 1015, 1014, 1012, 1012, 1012, 1012, 1012, 1010, 1010, 1010, 1009, 1009, 1004, 994, 994, 986, 986, 978, 969, 969, 962, 962, 953, 947, 947, 940, 940, 938, 937, 937, 936, 936, 936, 934, 934, 933, 933, 933, 931, 929, 929, 929, 929, 929, 929, 929, 929, 929, 929, 929, 929, 929, 930, 933, 933, 936, 938, 938, 941, 946, 946, 951, 957, 957, 962, 969, 969, 975, 975, 980, 986, 986, 993, 996, 996, 999, 1004, 1004, 1007, 1009, 1009, 1012, 1014, 1014, 1014, 1014, 1012, 1012, 1010, 1009, 1009, 1009, 1009, 1007, 1007, 1007, 1005, 1005, 0, 0, 0, 0, 0, 0, 0, 0, 799, 799, 799, 799, 799, 799, 800, 800, 800, 800, 800, 800, 800, 800, 800, 801, 801, 801, 801, 801, 801, 801, 802, 803, 803, 803, 804, 804, 804, 804, 805, 805, 805, 805, 805, 805, 805, 805, 804, 804, 803, 803, 803, 802, 802, 802, 801, 801, 800, 800, 800, 799, 799, 799, 799, 799, 798, 797, 797, 797, 797, 797, 797, 797, 796, 796, 796, 796, 797, 797, 797, 798, 799, 799, 799, 799, 800, 801, 801, 802, 803, 803, 804, 804, 803, 803, 803, 801, 801, 801, 801, 800, 800, 800, 799, 798, 798, 798, 798, 798, 798, 799, 799, 799, 799, 799, 799, 799, 799, 799, 799, 799, 799, 799, 799, 800, 800, 800, 800, 800, 800, 800, 800, 800, 800, 800, 800, 800, 800, 800, 799, 799, 799, 799, 799, 799, 799, 799, 799, 799, 799, 799, 799, 799, 799, 799, 799, 799, 799, 798, 798, 798, 798, 797, 797, 797, 796, 796, 796, 796, 795, 795, 795, 795, 795, 794, 794, 794, 795, 795, 795, 795, 795, 796, 796, 796, 797, 797, 797, 797, 797, 797, 798, 798, 798, 799, 798, 798, 798, 798, 798, 797, 797, 797, 796, 796, 796, 796, 796, 795, 795, 795, 795, 795, 795, 795, 795, 794, 794, 794, 794, 793, 793, 792, 792, 792, 791, 791, 791, 791, 791, 791, 791, 791, 791, 791, 791, 791, 791, 790, 790, 790, 790, 790, 790, 791, 791, 791, 791, 791, 791, 791, 791, 791, 791, 791, 791, 792, 792, 793, 793, 795, 796, 796, 798, 800, 800, 802, 803, 803, 804, 805, 804, 804, 804, 803, 803, 802, 801, 801, 800, 800, 799, 797, 797, 797, 797, 796, 795, 795, 794, 793, 793, 793, 793, 792, 791, 791, 791, 790, 790, 790, 790, 789, 789, 789, 788, 788, 788, 787, 787, 786, 786, 786, 785, 785, 785, 784, 784, 784, 783, 783, 783, 783, 783, 783, 783, 783, 783, 783, 783, 783, 784, 784, 785, 785, 785, 785, 785, 785, 786, 786, 786, 786, 786, 787, 787, 787, 787, 787, 788, 789, 789, 789, 789, 789, 789, 789, 789, 789, 789, 790, 968, 971, 971, 972, 972, 974, 978, 978, 980, 983, 983, 985, 985, 985, 986, 986, 986, 986, 985, 985, 985, 983, 983, 983, 982, 982, 980, 978, 978, 977, 977, 975, 974, 974, 972, 972, 972, 969, 969, 969, 971, 971, 971, 971, 971, 971, 972, 972, 972, 972, 972, 972, 974, 974, 974, 975, 975, 975, 975, 977, 977, 977, 977, 977, 977, 977, 977, 977, 977, 977, 977, 977, 977, 977, 977, 977, 978, 978, 978, 978, 978, 978, 980, 980, 980, 980, 980, 980, 980, 980
